0.843553 0.631284 0 0 0 -1
0.0836624 1 0.271879 0 1 0
0 0.536004 0.0482542 -1 0 0
0 0.600368 0.101837 -1 0 0
0.724242 1 0.109258 0 1 0
0.93023 0.62338 1 0 0 1
0.354035 0.509475 0 0 0 -1
0.351018 1 0.784027 0 1 0
1 0.80577 0.393609 1 0 0
0 0.862149 0.420152 -1 0 0
1 0.780956 0.185249 1 0 0
1 0.175273 0.947822 1 0 0
0.348168 0 0.543815 0 -1 0
0.17733 0.683453 1 0 0 1
0.36862 1 0.222722 0 1 0
0.706268 0 0.598126 0 -1 0
0.569326 0.992334 1 0 0 1
0.523292 0 0.621157 0 -1 0
0.850682 0.975572 0 0 0 -1
0.310831 1 0.875002 0 1 0
0.440156 0 0.149384 0 -1 0
0.738357 0.306702 1 0 0 1
0.224217 0.279668 0 0 0 -1
0.898183 0.360653 1 0 0 1
0.546412 0.662219 0 0 0 -1
0.372089 0 0.152741 0 -1 0
0.120638 0 0.373311 0 -1 0
0 0.99018 0.998389 -1 0 0
1 0.925682 0.813612 1 0 0
0.44539 0 0.886012 0 -1 0
0 0.452267 0.8422 -1 0 0
0.122236 0.4688 0 0 0 -1
0.0510562 0.363428 0 0 0 -1
0.81466 0.689612 1 0 0 1
0.226322 0.701164 0 0 0 -1
0.317206 1 0.434828 0 1 0
0.274 0.24466 0 0 0 -1
1 0.308865 0.210593 1 0 0
1 0.35089 0.354607 1 0 0
0 0.486108 0.939498 -1 0 0
0 0.092651 0.633125 -1 0 0
0.476989 0 0.891448 0 -1 0
0.170648 0 0.945614 0 -1 0
0.650878 0.350588 0 0 0 -1
0.448163 0.337845 0 0 0 -1
0 0.119536 0.364259 -1 0 0
1 0.428025 0.141188 1 0 0
0.806639 0.30297 1 0 0 1
0.0257491 0 0.911695 0 -1 0
1 0.127656 0.354986 1 0 0
0 0.798311 0.251648 -1 0 0
0.919076 0.0776314 1 0 0 1
0 0.373533 0.560676 -1 0 0
0.614202 0.0531344 0 0 0 -1
0.862351 0.253295 0 0 0 -1
0.254689 0.256625 1 0 0 1
0.799933 0.52895 0 0 0 -1
0.881187 1 0.594218 0 1 0
0.0212288 0.700243 1 0 0 1
0.500846 1 0.603202 0 1 0
0 0.293745 0.568469 -1 0 0
0.169027 0.445965 0 0 0 -1
0.436172 1 0.132993 0 1 0
0 0.472469 0.568932 -1 0 0
0.272167 0 0.251961 0 -1 0
1 0.839944 0.886491 1 0 0
0.866004 0.286684 1 0 0 1
0 0.986239 0.53314 -1 0 0
1 0.704265 0.861226 1 0 0
0 0.24726 0.256602 -1 0 0
0.944378 0 0.558653 0 -1 0
0 0.140556 0.637996 -1 0 0
0 0.754903 0.79673 -1 0 0
0.928544 0 0.402928 0 -1 0
1 0.446788 0.627931 1 0 0
0 0.639644 0.773102 -1 0 0
0.0750159 0.854843 1 0 0 1
0.603153 0.480546 1 0 0 1
0 0.0643073 0.873053 -1 0 0
0.652642 0.962294 1 0 0 1
0.487492 0.468964 0 0 0 -1
0.680215 0.228669 1 0 0 1
0.171956 0 0.939378 0 -1 0
1 0.606201 0.377315 1 0 0
0.843353 0.549477 0 0 0 -1
0.176835 0 0.3944 0 -1 0
0 0.606573 0.0694628 -1 0 0
0.0887636 1 0.263278 0 1 0
1 0.231568 0.310718 1 0 0
0.439953 0 0.428465 0 -1 0
1 0.148847 0.95111 1 0 0
0.681906 0.75341 0 0 0 -1
0.606648 0.465564 1 0 0 1
0.998433 0.76792 0 0 0 -1
0.26295 0.323373 1 0 0 1
0.720605 0 0.478203 0 -1 0
0.610526 0 0.0318022 0 -1 0
0.805255 0 0.448834 0 -1 0
0.104452 0.558502 1 0 0 1
0 0.320716 0.497261 -1 0 0
0.625331 1 0.592537 0 1 0
0 0.454763 0.200761 -1 0 0
0 0.91988 0.453417 -1 0 0
0.991208 0.26694 0 0 0 -1
0 0.18303 0.98243 -1 0 0
0 0.0847031 0.633788 -1 0 0
0.304388 0.55687 1 0 0 1
0.566698 1 0.781115 0 1 0
0 0.428985 0.740943 -1 0 0
1 0.432586 0.271883 1 0 0
0.422752 1 0.964525 0 1 0
0.104326 1 0.719693 0 1 0
1 0.289756 0.153244 1 0 0
0.458886 1 0.334275 0 1 0
0.083769 0.643741 0 0 0 -1
1 0.906318 0.572404 1 0 0
0.101103 0 0.922182 0 -1 0
0 0.109562 0.218579 -1 0 0
1 0.290436 0.603096 1 0 0
0 0.221623 0.401652 -1 0 0
0.493896 0.819725 1 0 0 1
0.843403 0.259235 0 0 0 -1
0.963463 1 0.535667 0 1 0
0.456048 0 0.727893 0 -1 0
0.574739 0.51888 0 0 0 -1
0.462392 1 0.628561 0 1 0
0.7161 0.280882 0 0 0 -1
0.774005 0.331333 0 0 0 -1
0.340081 0.0861267 1 0 0 1
0.901118 0 0.450405 0 -1 0
0 0.36962 0.0510012 -1 0 0
0.769227 1 0.314927 0 1 0
0.547496 1 0.585323 0 1 0
0.189178 0 0.193373 0 -1 0
0 0.519216 0.673426 -1 0 0
0.233878 1 0.490862 0 1 0
0.570566 1 0.33512 0 1 0
0.018137 1 0.845594 0 1 0
0.960671 0.756132 1 0 0 1
0 0.250815 0.542555 -1 0 0
0.493047 0 0.360196 0 -1 0
0.681683 0.0852163 0 0 0 -1
0.439969 0.870588 1 0 0 1
0.968196 1 0.432452 0 1 0
0.796037 0.130954 1 0 0 1
0 0.424404 0.844175 -1 0 0
0 0.300561 0.639364 -1 0 0
0.839829 0 0.431331 0 -1 0
0 0.561395 0.295674 -1 0 0
1 0.814234 0.522905 1 0 0
0.854055 0.25348 0 0 0 -1
0.47408 0.65847 1 0 0 1
0.645999 1 0.920899 0 1 0
1 0.382202 0.866221 1 0 0
0.506822 0.965172 0 0 0 -1
1 0.958036 0.498659 1 0 0
0.938935 0.860111 0 0 0 -1
1 0.693351 0.828798 1 0 0
0.943863 0.614188 1 0 0 1
0.850959 1 0.184508 0 1 0
0.68584 1 0.680341 0 1 0
1 0.194909 0.0907364 1 0 0
0.94365 1 0.455757 0 1 0
0.227577 0.190533 1 0 0 1
0.950558 0.877662 0 0 0 -1
0.165876 0.850268 1 0 0 1
0 0.607697 0.37284 -1 0 0
0.860061 0.38775 0 0 0 -1
1 0.847258 0.419386 1 0 0
0 0.724858 0.67221 -1 0 0
0.109617 0.142653 1 0 0 1
0.383268 0 0.520503 0 -1 0
0 0.324073 0.936163 -1 0 0
0.657393 0 0.372574 0 -1 0
0.7471 0 0.353772 0 -1 0
0.618466 0.243261 1 0 0 1
0.738512 1 0.222335 0 1 0
1 0.128098 0.344725 1 0 0
0 0.890332 0.388369 -1 0 0
0.232522 1 0.467452 0 1 0
0 0.54112 0.453376 -1 0 0
0.975647 0 0.0394944 0 -1 0
0.0616381 0 0.271472 0 -1 0
0.550481 0 0.586039 0 -1 0
0.496628 0 0.0156174 0 -1 0
0.195139 0.738583 1 0 0 1
0.403487 0.129722 1 0 0 1
0 0.792286 0.219334 -1 0 0
0 0.675838 0.469413 -1 0 0
0.48505 0.660125 0 0 0 -1
0.32395 1 0.677568 0 1 0
0.539177 0 0.437707 0 -1 0
0 0.267713 0.713816 -1 0 0
0.669485 1 0.434701 0 1 0
0.655904 0 0.466899 0 -1 0
1 0.655754 0.124553 1 0 0
0.62055 1 0.959933 0 1 0
0.787662 0 0.866376 0 -1 0
0.391443 0.0169057 1 0 0 1
0.869847 0 0.350061 0 -1 0
1 0.874948 0.676293 1 0 0
1 0.578895 0.255379 1 0 0
0.0209267 0.441806 0 0 0 -1
0.210215 0.683592 1 0 0 1
0.55506 0.409577 0 0 0 -1
0.182525 0.144096 1 0 0 1
1 0.670003 0.719116 1 0 0
0.95906 1 0.44131 0 1 0
0.818003 0 0.630232 0 -1 0
0 0.919606 0.00708359 -1 0 0
1 0.913389 0.456618 1 0 0
0.887137 0.484679 0 0 0 -1
0.761064 0.0275508 0 0 0 -1
0.834737 0 0.756528 0 -1 0
0.158447 0 0.859568 0 -1 0
0 0.442271 0.994536 -1 0 0
0.261755 0.894684 1 0 0 1
1 0.311463 0.650812 1 0 0
0.41565 0.950618 1 0 0 1
0.458538 0 0.77683 0 -1 0
0.926575 0.631354 0 0 0 -1
0.54623 0.494953 1 0 0 1
0.329343 0.498386 1 0 0 1
1 0.194731 0.0343787 1 0 0
0.0659285 0 0.887608 0 -1 0
0.469699 0.148198 1 0 0 1
1 0.617577 0.599941 1 0 0
1 0.533483 0.69336 1 0 0
0.0721667 0.793351 0 0 0 -1
0.527156 0.849891 1 0 0 1
0.635306 0.629337 1 0 0 1
0.227706 0.510967 0 0 0 -1
0.00908005 0.732287 1 0 0 1
0.888558 1 0.794934 0 1 0
0 0.461123 0.296656 -1 0 0
0 0.427129 0.676853 -1 0 0
0 0.0159768 0.586815 -1 0 0
0.688653 1 0.0128279 0 1 0
1 0.797429 0.256652 1 0 0
0 0.476341 0.0474619 -1 0 0
0.687265 0.804152 0 0 0 -1
0.516136 1 0.159024 0 1 0
0 0.884166 0.190966 -1 0 0
1 0.359753 0.253196 1 0 0
1 0.108029 0.636283 1 0 0
0 0.888778 0.761212 -1 0 0
0 0.309332 0.57501 -1 0 0
0.259785 0 0.745893 0 -1 0
0.375126 1 0.66246 0 1 0
0.211071 0.491908 1 0 0 1
0 0.567472 0.800718 -1 0 0
0.563281 1 0.122051 0 1 0
0.661316 0.404208 1 0 0 1
0.240121 0.0510777 1 0 0 1
0 0.402024 0.389261 -1 0 0
0.0489153 0 0.130544 0 -1 0
0.985314 0.888029 0 0 0 -1
0.831307 0.262889 1 0 0 1
1 0.361259 0.856816 1 0 0
0.171675 0.565039 0 0 0 -1
0 0.386066 0.533959 -1 0 0
0.794015 0.782676 1 0 0 1
0.505144 0.706246 1 0 0 1
0.564391 1 0.874094 0 1 0
0.167452 1 0.261252 0 1 0
0.65547 0.961154 0 0 0 -1
1 0.0749611 0.688228 1 0 0
0.748051 0.863368 0 0 0 -1
0.303847 0 0.757759 0 -1 0
0.945589 0.99696 0 0 0 -1
0 0.992724 0.35563 -1 0 0
0.777258 1 0.789024 0 1 0
0.884719 0.0812026 0 0 0 -1
0.91203 0 0.774352 0 -1 0
0.0165666 1 0.913843 0 1 0
0.926976 1 0.811278 0 1 0
0.845225 1 0.778549 0 1 0
1 0.882744 0.933705 1 0 0
1 0.119317 0.174528 1 0 0
0.997818 1 0.0682583 0 1 0
0.873687 0 0.0127803 0 -1 0
0.816626 0.178578 1 0 0 1
1 0.924983 0.911124 1 0 0
0.0509266 0.473125 1 0 0 1
0.160293 0.479084 1 0 0 1
1 0.557807 0.0432865 1 0 0
0.668097 0.718309 0 0 0 -1
1 0.503482 0.579073 1 0 0
1 0.754439 0.834683 1 0 0
0.00107591 0.0679064 0 0 0 -1
0.854783 0.234361 1 0 0 1
0.494012 0.626511 1 0 0 1
0.726614 0.831689 0 0 0 -1
0.366536 0.14764 0 0 0 -1
0.165282 0.327037 1 0 0 1
0.301031 0 0.297602 0 -1 0
1 0.564006 0.00236648 1 0 0
0.830704 0.414587 1 0 0 1
0.579953 0.4115 0 0 0 -1
0.718277 0 0.488238 0 -1 0
1 0.293515 0.751134 1 0 0
0.874211 0.0662004 1 0 0 1
0.29109 1 0.557097 0 1 0
0.622949 0.389916 0 0 0 -1
0 0.599955 0.628339 -1 0 0
0.812162 0 0.268686 0 -1 0
1 0.533072 0.292966 1 0 0
0.965702 0.107939 1 0 0 1
0 0.979529 0.149021 -1 0 0
1 0.756709 0.845001 1 0 0
0.385527 0.0138265 0 0 0 -1
0.653313 1 0.210107 0 1 0
0 0.646582 0.531772 -1 0 0
0.934646 0.709129 1 0 0 1
0.336361 1 0.392464 0 1 0
0.422388 1 0.019742 0 1 0
0.310735 0.542977 1 0 0 1
0.940614 0 0.790015 0 -1 0
0 0.2899 0.560333 -1 0 0
0.317714 0.152512 0 0 0 -1
0.0049301 1 0.247914 0 1 0
1 0.0513904 0.169818 1 0 0
1 0.346651 0.630994 1 0 0
1 0.971859 0.922759 1 0 0
0.433917 0.687417 0 0 0 -1
1 0.859069 0.795898 1 0 0
0.557437 0 0.547509 0 -1 0
0.02501 1 0.420546 0 1 0
1 0.415268 0.177009 1 0 0
0.836876 1 0.720612 0 1 0
0.517917 0.732582 1 0 0 1
0.0678364 0.511668 1 0 0 1
1 0.538102 0.184404 1 0 0
0.233141 1 0.681781 0 1 0
0.483407 1 0.0205371 0 1 0
0.416058 0.764158 0 0 0 -1
0.767677 0.440341 0 0 0 -1
1 0.533446 0.31519 1 0 0
0.330921 1 0.841214 0 1 0
0.583135 0.150062 1 0 0 1
0.128079 0 0.0884272 0 -1 0
0 0.89234 0.336538 -1 0 0
0.716273 0 0.622482 0 -1 0
1 0.582488 0.00983089 1 0 0
0 0.201651 0.448266 -1 0 0
0.850905 0.335997 1 0 0 1
1 0.142757 0.809206 1 0 0
0.339513 0.507283 0 0 0 -1
0.188575 0 0.20699 0 -1 0
1 0.333271 0.944433 1 0 0
0.0175813 1 0.627792 0 1 0
0.59808 0 0.132781 0 -1 0
0.00895905 0 0.525123 0 -1 0
0.32501 0.560186 1 0 0 1
1 0.925979 0.233466 1 0 0
0.156862 0.663574 1 0 0 1
0.655654 1 0.314274 0 1 0
0.959209 1 0.0652652 0 1 0
0.823102 0.275148 0 0 0 -1
0.179818 0.665055 1 0 0 1
0.117248 0 0.598533 0 -1 0
0.920558 1 0.588178 0 1 0
0.226686 0.511043 0 0 0 -1
0.0399573 0.0810798 0 0 0 -1
0 0.706269 0.548303 -1 0 0
1 0.52203 0.581535 1 0 0
1 0.485058 0.451458 1 0 0
0.578501 0.507032 0 0 0 -1
0.124697 0 0.441078 0 -1 0
0.0797072 0.767176 0 0 0 -1
0.92064 0.862679 1 0 0 1
0.944893 0.817396 1 0 0 1
0.210121 1 0.380584 0 1 0
0.782599 0.256585 0 0 0 -1
0.707702 1 0.598558 0 1 0
1 0.29657 0.363806 1 0 0
0.921209 0 0.117295 0 -1 0
0.1536 0.581064 1 0 0 1
0.598654 0.130543 1 0 0 1
1 0.188825 0.465533 1 0 0
0.393423 1 0.119984 0 1 0
0.399227 0 0.927087 0 -1 0
0.218779 1 0.165157 0 1 0
1 0.193421 0.905404 1 0 0
1 0.345645 0.399703 1 0 0
0.11931 0.307318 0 0 0 -1
0.170719 0.740326 1 0 0 1
0.66643 0.0711397 1 0 0 1
0.779679 0 0.14795 0 -1 0
0.559721 0 0.350121 0 -1 0
0.416099 1 0.049476 0 1 0
0.202656 1 0.28401 0 1 0
0.146434 1 0.478895 0 1 0
0.0229635 0.792166 1 0 0 1
0.939309 0.464758 1 0 0 1
1 0.65674 0.354379 1 0 0
0.10854 0.113013 0 0 0 -1
0.269375 0.833122 0 0 0 -1
0.0208782 0 0.0665012 0 -1 0
0.634229 1 0.452658 0 1 0
1 0.357582 0.00879109 1 0 0
0.0369443 0.953574 1 0 0 1
0.427763 0.281274 1 0 0 1
0.863567 0.110892 0 0 0 -1
0.868367 0 0.615677 0 -1 0
1 0.850732 0.57563 1 0 0
0.71242 0 0.779093 0 -1 0
0.789575 1 0.375266 0 1 0
0.492097 0 0.186278 0 -1 0
0.190684 0.512945 0 0 0 -1
0.656255 0.336907 1 0 0 1
0.0229869 0.921932 1 0 0 1
0.628268 0.706985 1 0 0 1
1 0.00902553 0.507589 1 0 0
0.0900867 0 0.148275 0 -1 0
0.963215 0.28697 1 0 0 1
1 0.255088 0.332289 1 0 0
0.0711127 0.4964 0 0 0 -1
0.909677 0.399242 0 0 0 -1
0.893255 0 0.234034 0 -1 0
0.199853 0.0567615 1 0 0 1
0 0.225155 0.749813 -1 0 0
0.219999 1 0.720577 0 1 0
0.370826 0 0.803895 0 -1 0
0.194959 0 0.762977 0 -1 0
1 0.8706 0.636281 1 0 0
0.387359 0.981091 0 0 0 -1
1 0.270735 0.218937 1 0 0
0.924799 0.975449 0 0 0 -1
0.177836 0.534448 0 0 0 -1
1 0.0568018 0.852436 1 0 0
0.735463 0 0.214492 0 -1 0
0.827146 0 0.162727 0 -1 0
1 0.929616 0.418014 1 0 0
0.280508 1 0.770089 0 1 0
0.961548 0 0.808497 0 -1 0
0.973474 0.604371 0 0 0 -1
0.303893 0.208855 0 0 0 -1
1 0.0190482 0.53444 1 0 0
0 0.925579 0.197503 -1 0 0
0 0.826849 0.056186 -1 0 0
0.480692 0.596758 1 0 0 1
0.828758 1 0.487557 0 1 0
0.259469 0.689326 1 0 0 1
0.170452 0.657784 1 0 0 1
0.216662 0.581532 1 0 0 1
0.35345 0.813632 0 0 0 -1
6.90853e-05 0 0.336343 0 -1 0
0.193992 1 0.0977918 0 1 0
0.23873 0.908668 0 0 0 -1
0.976734 1 0.623964 0 1 0
0.434202 0.517638 0 0 0 -1
0.333223 1 0.745831 0 1 0
0 0.613788 0.523148 -1 0 0
0.708226 0.360404 0 0 0 -1
1 0.154155 0.640263 1 0 0
0.722219 0.438754 0 0 0 -1
0.186166 0 0.542183 0 -1 0
1 0.321105 0.791939 1 0 0
0.751067 0.517012 0 0 0 -1
0.594203 1 0.390844 0 1 0
0.207702 0.258942 0 0 0 -1
0 0.437881 0.530507 -1 0 0
0 0.849269 0.776687 -1 0 0
0.846111 0.724529 1 0 0 1
0.148072 0.56173 0 0 0 -1
0.718221 0.648371 0 0 0 -1
0.0908837 1 0.562473 0 1 0
0.819029 1 0.287081 0 1 0
0.493527 0.350304 0 0 0 -1
0.269303 0.317083 1 0 0 1
0 0.831422 0.465349 -1 0 0
0.0188203 0.363596 1 0 0 1
1 0.419373 0.65376 1 0 0
0.678665 0.472115 0 0 0 -1
0.677681 1 0.322434 0 1 0
1 0.644292 0.444426 1 0 0
1 0.134127 0.204594 1 0 0
0.846745 0.412013 1 0 0 1
0.624604 0.724126 0 0 0 -1
0.0293124 0.308042 0 0 0 -1
0.272718 0.44428 0 0 0 -1
0.976293 1 0.622612 0 1 0
1 0.290866 0.0294079 1 0 0
0.10861 0.286717 1 0 0 1
0 0.486258 0.88143 -1 0 0
0.0221546 1 0.417676 0 1 0
0 0.949282 0.178952 -1 0 0
0 0.580896 0.107889 -1 0 0
1 0.795946 0.915525 1 0 0
0 0.431473 0.984124 -1 0 0
0 0.617915 0.352373 -1 0 0
0.71051 0.933397 1 0 0 1
0 0.394714 0.901331 -1 0 0
0.900258 0 0.052215 0 -1 0
0 0.455262 0.656285 -1 0 0
1 0.320626 0.591701 1 0 0
0 0.209724 0.2561 -1 0 0
0.52231 0.712109 1 0 0 1
0 0.448226 0.655313 -1 0 0
0.912871 1 0.334224 0 1 0
0.418838 0.870173 0 0 0 -1
0.570423 1 0.358945 0 1 0
0.739521 0.83211 1 0 0 1
0 0.8986 0.232455 -1 0 0
0.993621 1 0.503657 0 1 0
1 0.333617 0.948472 1 0 0
0.848616 1 0.751927 0 1 0
0 0.127579 0.392214 -1 0 0
0.360883 0 0.593302 0 -1 0
0.0984768 0 0.529894 0 -1 0
0 0.324795 0.729678 -1 0 0
1 0.677391 0.725179 1 0 0
0.60527 0.620872 0 0 0 -1
0.481098 1 0.323823 0 1 0
0.094161 1 0.0679643 0 1 0
0 0.201133 0.124043 -1 0 0
0 0.311736 0.911576 -1 0 0
0 0.0767379 0.315809 -1 0 0
0.399933 0 0.983223 0 -1 0
0 0.0160111 0.298263 -1 0 0
0.25223 0.41286 1 0 0 1
0 0.691634 0.849711 -1 0 0
0.576378 1 0.789907 0 1 0
0.530208 0 0.712186 0 -1 0
1 0.946422 0.397115 1 0 0
0.0804122 1 0.718426 0 1 0
0.116866 0.448819 1 0 0 1
0.601932 0 0.000749171 0 -1 0
0.163924 0.565995 1 0 0 1
0.0262976 0.415803 1 0 0 1
0 0.936287 0.174876 -1 0 0
1 0.593635 0.0599464 1 0 0
1 0.790148 0.271304 1 0 0
1 0.122996 0.179786 1 0 0
0 0.387105 0.697794 -1 0 0
0 0.0415675 0.733992 -1 0 0
0.0543595 0.354505 1 0 0 1
0.811119 0 0.916529 0 -1 0
0 0.313402 0.376245 -1 0 0
0 0.281897 0.403934 -1 0 0
1 0.291155 0.0694121 1 0 0
1 0.410331 0.108433 1 0 0
0.608521 0 0.974879 0 -1 0
0 0.140592 0.341179 -1 0 0
0 0.873225 0.898921 -1 0 0
0.407842 0.877889 0 0 0 -1
1 0.120414 0.674082 1 0 0
0.568445 0.373292 1 0 0 1
1 0.211844 0.64989 1 0 0
0.927947 0.286205 0 0 0 -1
0 0.49669 0.50557 -1 0 0
0.589703 0.228548 1 0 0 1
0 0.931965 0.0285507 -1 0 0
0.30762 1 0.808487 0 1 0
0.246351 0.419624 0 0 0 -1
0.107772 0.237262 1 0 0 1
0.960907 0.0942245 1 0 0 1
0.550496 0.897067 1 0 0 1
0.114526 0.611656 1 0 0 1
1 0.317157 0.627774 1 0 0
1 0.0448111 0.0459883 1 0 0
0.832165 0.257622 0 0 0 -1
0.590985 1 0.241271 0 1 0
0.998152 0.24563 0 0 0 -1
0.535163 1 0.324366 0 1 0
1 0.908881 0.348323 1 0 0
0.485094 0.349879 0 0 0 -1
0.0731192 0.768291 1 0 0 1
0.585734 0.263483 0 0 0 -1
0.933078 0 0.679295 0 -1 0
0 0.480844 0.670622 -1 0 0
0.253521 0.399668 1 0 0 1
0.0714539 1 0.861124 0 1 0
0 0.591734 0.547721 -1 0 0
0.625535 0 0.266063 0 -1 0
0 0.894052 0.636301 -1 0 0
0 0.0636998 0.589792 -1 0 0
0.406837 1 0.45228 0 1 0
0.8712 0 0.850841 0 -1 0
0.278849 0 0.534678 0 -1 0
1 0.743008 0.0609164 1 0 0
0.036227 0.58552 0 0 0 -1
1 0.445356 0.770296 1 0 0
0.99836 1 0.652688 0 1 0
0.0758902 1 0.921036 0 1 0
1 0.271968 0.906181 1 0 0
0.309343 1 0.299019 0 1 0
1 0.329944 0.540455 1 0 0
0.792389 0 0.211455 0 -1 0
0.331059 0 0.128412 0 -1 0
0.882231 0.458285 1 0 0 1
0 0.518504 0.420442 -1 0 0
0.378338 0 0.512081 0 -1 0
0.140981 0.619713 0 0 0 -1
0.528304 0.190431 0 0 0 -1
0 0.463105 0.902333 -1 0 0
0 0.205458 0.501395 -1 0 0
0 0.818745 0.00582426 -1 0 0
0.854782 0 0.983126 0 -1 0
1 0.220991 0.801902 1 0 0
0.66547 0 0.292541 0 -1 0
0.578622 0.53724 0 0 0 -1
0.964023 0 0.686963 0 -1 0
1 0.595998 0.399603 1 0 0
1 0.542784 0.450797 1 0 0
0.496441 0 0.676563 0 -1 0
0.901968 0 0.793715 0 -1 0
0.868781 0.89798 0 0 0 -1
0.819341 1 0.378734 0 1 0
0.428973 0.45713 1 0 0 1
0 0.645137 0.529752 -1 0 0
0 0.828765 0.400175 -1 0 0
1 0.896839 0.784178 1 0 0
1 0.124668 0.30152 1 0 0
0 0.400099 0.730892 -1 0 0
0.860259 1 0.76088 0 1 0
1 0.997171 0.844722 1 0 0
0.266848 1 0.537979 0 1 0
0.998509 1 0.398662 0 1 0
0 0.324712 0.294218 -1 0 0
0.815385 1 0.957206 0 1 0
0 0.79621 0.580979 -1 0 0
0.888344 0.39545 1 0 0 1
0 0.954296 0.764589 -1 0 0
0.121187 0.310932 1 0 0 1
0.466214 0 0.235442 0 -1 0
0.96277 1 0.650495 0 1 0
0.772787 0.0104626 1 0 0 1
0 0.144292 0.704621 -1 0 0
1 0.225139 0.925761 1 0 0
0 0.239304 0.0432384 -1 0 0
0.42517 0 0.231204 0 -1 0
1 0.153271 0.0653012 1 0 0
0.984406 1 0.872963 0 1 0
0.474594 0 0.303071 0 -1 0
0.0174356 0 0.30452 0 -1 0
0.368367 0.552488 0 0 0 -1
0.602553 1 0.0657948 0 1 0
0.361735 0.294285 0 0 0 -1
0 0.808715 0.801973 -1 0 0
0 0.431632 0.00873184 -1 0 0
0.99937 0 0.0394466 0 -1 0
0.845782 0.932891 1 0 0 1
0.255099 0 0.992228 0 -1 0
0.671686 0.151105 0 0 0 -1
0 0.423054 0.423481 -1 0 0
1 0.959637 0.256381 1 0 0
0.345434 0.733009 1 0 0 1
1 0.769932 0.474459 1 0 0
0.412631 0 0.555876 0 -1 0
0.505145 1 0.411935 0 1 0
0.915207 0.499229 1 0 0 1
0.78236 0.00822127 1 0 0 1
0.402568 0.186345 0 0 0 -1
1 0.30943 0.886299 1 0 0
0.380271 0.522893 0 0 0 -1
0.468129 0 0.188143 0 -1 0
0.285946 1 0.403888 0 1 0
0 0.462894 0.943183 -1 0 0
0.00751403 0.022374 1 0 0 1
0.220756 0 0.196266 0 -1 0
0.18475 0 0.220514 0 -1 0
0 0.486108 0.638642 -1 0 0
0 0.237656 0.857049 -1 0 0
1 0.0916835 0.959081 1 0 0
1 0.0645197 0.814829 1 0 0
0.755563 0.59178 0 0 0 -1
0.298531 0.705659 1 0 0 1
0.0819499 0.494261 1 0 0 1
0.894163 1 0.54886 0 1 0
0.589835 0 0.514898 0 -1 0
0.903164 0 0.613391 0 -1 0
0.729032 1 0.011584 0 1 0
0.399127 0.602057 1 0 0 1
1 0.210475 0.967386 1 0 0
0.250218 1 0.853839 0 1 0
0.0315331 0.550687 0 0 0 -1
0.951398 0 0.216161 0 -1 0
0.890943 1 0.223996 0 1 0
0 0.169469 0.692994 -1 0 0
0.764696 0.37861 0 0 0 -1
0.130646 0.298169 0 0 0 -1
0.45028 0.602852 0 0 0 -1
0.963848 0.864804 1 0 0 1
0 0.9555 0.110059 -1 0 0
0.321784 0 0.895366 0 -1 0
0.0645109 0.386569 1 0 0 1
0.395731 0.728227 0 0 0 -1
0.201756 1 0.887829 0 1 0
0.603024 0.147143 0 0 0 -1
0.723853 0.49537 1 0 0 1
0.734517 0 0.11325 0 -1 0
0.328307 0.488269 0 0 0 -1
1 0.666041 0.470041 1 0 0
0 0.361626 0.751848 -1 0 0
0.0685423 0.539045 0 0 0 -1
0.279162 0 0.0478763 0 -1 0
1 0.497507 0.633265 1 0 0
0 0.926858 0.871366 -1 0 0
0.605939 1 0.402643 0 1 0
0.431544 0 0.896138 0 -1 0
1 0.808532 0.624929 1 0 0
0.161547 1 0.135167 0 1 0
0.740628 1 0.983405 0 1 0
0.762384 1 0.894417 0 1 0
0.636602 0.856995 0 0 0 -1
0.911657 0.849518 0 0 0 -1
0.439698 0.694038 1 0 0 1
0.434078 1 0.0965979 0 1 0
0.750751 0.392756 1 0 0 1
0.7691 0 0.25595 0 -1 0
1 0.326912 0.824859 1 0 0
0 0.310401 0.577766 -1 0 0
0.209543 0.869845 1 0 0 1
0 0.154587 0.717945 -1 0 0
0.559716 1 0.911597 0 1 0
1 0.0616389 0.586029 1 0 0
0.866686 0.66411 0 0 0 -1
0.0685098 0.879657 1 0 0 1
0.942992 0.270537 1 0 0 1
0 0.779884 0.7486 -1 0 0
0.250062 1 0.0993771 0 1 0
0.080304 0.5364 0 0 0 -1
0.579696 0.537511 0 0 0 -1
0.0821959 0.674352 1 0 0 1
0.31151 0.105231 1 0 0 1
1 0.319263 0.402883 1 0 0
0 0.0919528 0.196094 -1 0 0
0.427628 0.754255 1 0 0 1
0.758073 0.423711 1 0 0 1
0.858955 1 0.93584 0 1 0
0.650257 0.895173 0 0 0 -1
0.14515 0.0426899 0 0 0 -1
0.187971 1 0.767074 0 1 0
1 0.220997 0.608279 1 0 0
1 0.0782843 0.8748 1 0 0
0.305762 0 0.384552 0 -1 0
1 0.361053 0.904198 1 0 0
0.63533 0 0.103844 0 -1 0
1 0.929093 0.01793 1 0 0
1 0.477719 0.0414439 1 0 0
0.807312 0.0529945 1 0 0 1
0.853115 0.109042 0 0 0 -1
0 0.284923 0.172837 -1 0 0
1 0.718895 0.293808 1 0 0
0.243616 1 0.249962 0 1 0
0.799182 0 0.416721 0 -1 0
0.146059 0.107823 0 0 0 -1
0.0277061 0.503096 1 0 0 1
1 0.991606 0.512752 1 0 0
0 0.530332 0.844927 -1 0 0
0.482347 0.0576284 0 0 0 -1
0.314684 0 0.857014 0 -1 0
0.393162 0.287482 0 0 0 -1
0 0.993078 0.459116 -1 0 0
0.364118 0.960226 1 0 0 1
0.108037 0 0.592288 0 -1 0
0.335047 0.660786 0 0 0 -1
0.240202 0.29091 1 0 0 1
0.366278 1 0.398364 0 1 0
0.460793 0.59178 0 0 0 -1
0.0554021 0.280177 1 0 0 1
1 0.252765 0.800886 1 0 0
0.988619 0.972996 0 0 0 -1
0.548417 0 0.780113 0 -1 0
0.704661 0 0.761499 0 -1 0
0.56587 0 0.657472 0 -1 0
0.328547 1 0.800975 0 1 0
0 0.577395 0.872728 -1 0 0
0 0.161472 0.174744 -1 0 0
0.00139713 0.707356 1 0 0 1
0.234229 0.384195 1 0 0 1
0 0.110323 0.19761 -1 0 0
0.692819 1 0.389636 0 1 0
0.161696 0.540374 1 0 0 1
0.0762032 0 0.235591 0 -1 0
1 0.329926 0.971974 1 0 0
1 0.506666 0.368367 1 0 0
0.30086 0.198845 0 0 0 -1
0.145648 0 0.175411 0 -1 0
0.926751 0 0.590762 0 -1 0
0.960398 0.563663 1 0 0 1
1 0.420549 0.826626 1 0 0
0.023033 0.544173 0 0 0 -1
1 0.307707 0.895452 1 0 0
0 0.239943 0.586778 -1 0 0
0.905433 0.361525 0 0 0 -1
0.629836 1 0.168975 0 1 0
0 0.559761 0.00938983 -1 0 0
0.64685 1 0.746509 0 1 0
1 0.767148 0.616326 1 0 0
0.214981 1 0.0293033 0 1 0
0.0364187 0 0.732611 0 -1 0
0.914596 0 0.720956 0 -1 0
0.163181 0.320019 1 0 0 1
0.745444 0.819027 0 0 0 -1
0.136299 0 0.187843 0 -1 0
0 0.221843 0.396389 -1 0 0
0.634915 1 0.511734 0 1 0
0.19203 1 0.285236 0 1 0
0.767632 0.916082 0 0 0 -1
0.496804 0.882156 1 0 0 1
0.313664 1 0.262409 0 1 0
0.105704 0 0.2764 0 -1 0
1 0.616466 0.766113 1 0 0
0.928951 1 0.453787 0 1 0
1 0.171769 0.228836 1 0 0
0 0.543731 0.55568 -1 0 0
0 0.297172 0.146189 -1 0 0
0.108712 0 0.354934 0 -1 0
0.614428 1 0.933977 0 1 0
0.755737 0.638044 0 0 0 -1
0.799432 1 0.147934 0 1 0
0.757888 0.994192 0 0 0 -1
0.100283 0 0.248341 0 -1 0
0.670936 0 0.270268 0 -1 0
0.377206 1 0.856466 0 1 0
0.148222 0 0.720823 0 -1 0
0.533432 1 0.426299 0 1 0
0.161653 0.531163 1 0 0 1
0.988266 1 0.597634 0 1 0
0.649878 0 0.455824 0 -1 0
1 0.366266 0.773986 1 0 0
0 0.0138005 0.100642 -1 0 0
0.883751 0.138822 1 0 0 1
1 0.0923885 0.660969 1 0 0
0.738289 0 0.0816967 0 -1 0
1 0.089365 0.382097 1 0 0
0.619163 0 0.891298 0 -1 0
0.389942 0.869312 1 0 0 1
0.814426 1 0.536833 0 1 0
0.560592 0 0.504099 0 -1 0
0.0286434 0.85124 1 0 0 1
0.996224 0.435739 1 0 0 1
0.677383 0.5586 0 0 0 -1
0 0.81221 0.539315 -1 0 0
1 0.283927 0.146992 1 0 0
0.958396 1 0.791671 0 1 0
0.88303 0.694549 1 0 0 1
0.817857 0 0.192655 0 -1 0
0.936164 0 0.257398 0 -1 0
0.417009 1 0.688977 0 1 0
0.480211 0.103199 0 0 0 -1
1 0.786832 0.342691 1 0 0
0.116789 0.598516 1 0 0 1
0.0895289 0.889147 1 0 0 1
0.686222 1 0.970436 0 1 0
0.0803012 1 0.282029 0 1 0
0.454209 0 0.848985 0 -1 0
0 0.41301 0.597088 -1 0 0
0.963556 1 0.267098 0 1 0
0.823954 0.102164 0 0 0 -1
0.797011 0.908762 0 0 0 -1
0.482727 0.049623 0 0 0 -1
1 0.0637107 0.614914 1 0 0
0.964369 0 0.382081 0 -1 0
0.00931585 0.245021 0 0 0 -1
0 0.533145 0.449449 -1 0 0
0.0817029 0.40813 0 0 0 -1
0.393766 0 0.348515 0 -1 0
0.996458 0 0.649782 0 -1 0
0.356726 1 0.246275 0 1 0
0 0.268203 0.188053 -1 0 0
0.349419 0.726464 0 0 0 -1
0.587713 0 0.151411 0 -1 0
0 0.978322 0.890548 -1 0 0
0.23481 1 0.525776 0 1 0
0.945392 0.609965 1 0 0 1
0 0.969956 0.0676476 -1 0 0
0.254364 0 0.168881 0 -1 0
0.566847 0 0.513892 0 -1 0
0.600988 1 0.141128 0 1 0
0 0.240895 0.763324 -1 0 0
1 0.360687 0.0635495 1 0 0
1 0.85567 0.0490183 1 0 0
1 0.747121 0.712686 1 0 0
0.0490435 0.424198 0 0 0 -1
1 0.21266 0.757552 1 0 0
0.409456 0.22965 1 0 0 1
0.802443 1 0.405084 0 1 0
0.558234 0.0397258 0 0 0 -1
0.865128 0 0.371325 0 -1 0
0.122244 0 0.961067 0 -1 0
0.995213 0 0.5633 0 -1 0
0.389078 1 0.111302 0 1 0
0.586123 0 0.224047 0 -1 0
0.0954477 1 0.930344 0 1 0
0.455318 0.82256 0 0 0 -1
0.0321978 0.218678 0 0 0 -1
0.751994 0 0.918268 0 -1 0
0.104133 0.811244 0 0 0 -1
0.483209 0.677836 0 0 0 -1
1 0.740959 0.119518 1 0 0
0.0931965 0.827338 0 0 0 -1
0.0900695 0 0.218832 0 -1 0
0.114156 0.477542 0 0 0 -1
1 0.46256 0.812397 1 0 0
1 0.937818 0.856633 1 0 0
1 0.301384 0.189162 1 0 0
0 0.783666 0.537278 -1 0 0
0.138854 0.600821 1 0 0 1
0.358269 0 0.249768 0 -1 0
0.104662 0 0.647971 0 -1 0
0.307425 1 0.780818 0 1 0
0.848661 1 0.842283 0 1 0
0.95502 0.0948347 1 0 0 1
1 0.13609 0.87831 1 0 0
0 0.663448 0.890917 -1 0 0
1 0.291535 0.39832 1 0 0
0.449273 0.502677 1 0 0 1
0 0.278979 0.237908 -1 0 0
0.269653 0.38566 0 0 0 -1
0.248401 1 0.940545 0 1 0
1 0.757843 0.627792 1 0 0
0.930787 1 0.0399207 0 1 0
1 0.587902 0.829296 1 0 0
0.694094 0.338695 0 0 0 -1
0.34598 1 0.126169 0 1 0
1 0.154997 0.869457 1 0 0
0 0.85456 0.271946 -1 0 0
0 0.663514 0.362866 -1 0 0
0.714611 1 0.71483 0 1 0
0.968592 0.00471926 0 0 0 -1
0.8905 0 0.568998 0 -1 0
0.537511 1 0.979025 0 1 0
0 0.174517 0.703843 -1 0 0
1 0.791595 0.521224 1 0 0
0.759829 0.690815 0 0 0 -1
0 0.857418 0.560507 -1 0 0
0 0.275808 0.240095 -1 0 0
0 0.491958 0.917229 -1 0 0
0.113845 1 0.232818 0 1 0
0.726107 1 0.0578682 0 1 0
0.234779 0.103127 0 0 0 -1
0 0.290623 0.503456 -1 0 0
0.373122 0.722867 0 0 0 -1
0.362257 0.789438 0 0 0 -1
0.966936 0 0.682444 0 -1 0
0.67779 0 0.933695 0 -1 0
0.832986 0.313419 0 0 0 -1
0.106854 0 0.913781 0 -1 0
0.770141 1 0.347438 0 1 0
0.555343 1 0.608015 0 1 0
0 0.304194 0.702702 -1 0 0
0.283428 0.221364 0 0 0 -1
0.0347355 0 0.950868 0 -1 0
0.577591 0.326105 0 0 0 -1
0.406156 0.274278 0 0 0 -1
0 0.0307462 0.365402 -1 0 0
0.497178 0.587842 0 0 0 -1
1 0.129488 0.0632402 1 0 0
0 0.201902 0.485261 -1 0 0
1 0.0413487 0.347446 1 0 0
0 0.553264 0.555689 -1 0 0
1 0.228186 0.151247 1 0 0
0.748193 0.552764 1 0 0 1
0.692294 1 0.562228 0 1 0
0.662452 1 0.24099 0 1 0
0.133235 1 0.34233 0 1 0
0.0167244 0 0.208603 0 -1 0
0.0611994 0 0.329811 0 -1 0
0.830673 0 0.736961 0 -1 0
0.151947 0.0127718 0 0 0 -1
0 0.244214 0.195639 -1 0 0
0.456862 0.567092 0 0 0 -1
0.856957 1 0.221615 0 1 0
0.185869 1 0.722808 0 1 0
0 0.862779 0.367702 -1 0 0
0.182805 1 0.791565 0 1 0
0.000950515 0 0.363081 0 -1 0
0.373173 0.721196 1 0 0 1
1 0.599229 0.191798 1 0 0
0.559194 1 0.834788 0 1 0
0.803935 0 0.92041 0 -1 0
0.879231 1 0.905348 0 1 0
0 0.945177 0.673186 -1 0 0
0.755717 1 0.313242 0 1 0
0.143152 0.218259 0 0 0 -1
0.906147 0.479307 0 0 0 -1
0 0.154489 0.289783 -1 0 0
0.883992 0.746144 0 0 0 -1
0.531468 0 0.865092 0 -1 0
0.503228 0.344831 1 0 0 1
0.785987 0.444157 1 0 0 1
0.212062 0.543524 0 0 0 -1
1 0.064937 0.951622 1 0 0
0.736314 0 0.782533 0 -1 0
0.143542 0 0.931055 0 -1 0
0.116008 1 0.322323 0 1 0
1 0.237826 0.097611 1 0 0
0.967222 1 0.872697 0 1 0
0.859131 0.277049 0 0 0 -1
1 0.882443 0.517944 1 0 0
0.974077 1 0.571732 0 1 0
0.453294 0 0.891365 0 -1 0
0.306258 1 0.774206 0 1 0
1 0.0756851 0.532355 1 0 0
0 0.69778 0.501582 -1 0 0
0.730187 0.763789 1 0 0 1
0.793512 1 0.463676 0 1 0
1 0.300556 0.521542 1 0 0
0.582726 1 0.631662 0 1 0
1 0.192076 0.746557 1 0 0
1 0.728725 0.747578 1 0 0
0.0296896 1 0.0644878 0 1 0
0.715137 0 0.597809 0 -1 0
1 0.717005 0.815319 1 0 0
0 0.00466167 0.274349 -1 0 0
0.126062 0.494883 1 0 0 1
1 0.647653 0.301481 1 0 0
0 0.62808 0.356693 -1 0 0
0 0.354331 0.445116 -1 0 0
0.450999 1 0.414796 0 1 0
1 0.937138 0.76773 1 0 0
0.626004 1 0.616585 0 1 0
0.450587 0 0.369959 0 -1 0
1 0.415176 0.937236 1 0 0
0.459662 0 0.430096 0 -1 0
0.878338 0.5846 1 0 0 1
0.42947 0.610735 0 0 0 -1
0.461551 0 0.133491 0 -1 0
0.575389 0.574192 1 0 0 1
0 0.507419 0.813562 -1 0 0
0.168499 0 0.709227 0 -1 0
0.824724 0 0.0556199 0 -1 0
1 0.173797 0.305456 1 0 0
0.506849 1 0.772783 0 1 0
0.405406 0.63555 0 0 0 -1
1 0.382072 0.636467 1 0 0
0 0.432405 0.69396 -1 0 0
0.549662 0.953521 0 0 0 -1
0 0.957958 0.0349724 -1 0 0
0.308848 0.46274 1 0 0 1
0 0.218677 0.990366 -1 0 0
0.503576 0 0.193817 0 -1 0
0.976754 0.168237 0 0 0 -1
0.11438 0.12578 1 0 0 1
0.817116 0.160016 0 0 0 -1
0.131337 1 0.159593 0 1 0
0.180579 0.811519 0 0 0 -1
1 0.812091 0.763558 1 0 0
1 0.260759 0.42966 1 0 0
0.172657 0 0.380665 0 -1 0
0.138385 0 0.87754 0 -1 0
0.40006 0 0.23184 0 -1 0
0.337508 0.379626 0 0 0 -1
0.998157 0.7391 0 0 0 -1
1 0.732903 0.27649 1 0 0
0.0206437 0 0.989778 0 -1 0
1 0.251788 0.256429 1 0 0
0.936371 0.615477 1 0 0 1
0.703251 0 0.467167 0 -1 0
0.922676 0 0.674507 0 -1 0
0.845987 1 0.72964 0 1 0
0.649466 1 0.0908073 0 1 0
0 0.451181 0.0771125 -1 0 0
0.761016 0 0.606427 0 -1 0
0.887389 0.837245 1 0 0 1
0 0.181049 0.596099 -1 0 0
0.15161 0 0.192645 0 -1 0
0 0.936589 0.450776 -1 0 0
0.286352 0.489299 0 0 0 -1
0.155161 0 0.429757 0 -1 0
0.150885 0.155278 1 0 0 1
0.473356 0.163691 0 0 0 -1
0.134114 0 0.166728 0 -1 0
0.608858 0 0.164977 0 -1 0
0.291699 1 0.0328075 0 1 0
0 0.371645 0.606444 -1 0 0
0.533606 0.390022 1 0 0 1
0.964033 0.395417 1 0 0 1
0.504419 1 0.852241 0 1 0
0 0.935497 0.513 -1 0 0
0.329953 0.317832 1 0 0 1
0.271309 1 0.246859 0 1 0
0.641327 0.0582656 0 0 0 -1
0.619807 0.272063 0 0 0 -1
0 0.461265 0.00983089 -1 0 0
0 0.486108 0.562973 -1 0 0
0.822142 0 0.505875 0 -1 0
0.690663 0.421898 0 0 0 -1
1 0.16608 0.218318 1 0 0
1 0.275193 0.0483277 1 0 0
1 0.793781 0.192609 1 0 0
0.580069 1 0.403335 0 1 0
0.571075 0.437951 0 0 0 -1
0 0.125066 0.226509 -1 0 0
0 0.787889 0.8225 -1 0 0
1 0.689729 0.608814 1 0 0
0.536849 1 0.677977 0 1 0
1 0.998676 0.626827 1 0 0
0 0.986108 0.420844 -1 0 0
0.241972 1 0.243565 0 1 0
0 0.985233 0.64916 -1 0 0
0 0.0576352 0.421205 -1 0 0
0 0.757405 0.390383 -1 0 0
0.746944 0.0676295 0 0 0 -1
0.0920609 0.0193661 1 0 0 1
0.343295 0.727023 1 0 0 1
0.748852 0.321921 1 0 0 1
0.430308 0 0.060931 0 -1 0
0.367676 0.43541 1 0 0 1
0.00635105 0.0140743 1 0 0 1
0.964788 1 0.778609 0 1 0
0.475443 1 0.849514 0 1 0
1 0.803678 0.556021 1 0 0
0.639921 1 0.54353 0 1 0
0.00119874 0.40875 0 0 0 -1
0.883272 0.822148 0 0 0 -1
1 0.927858 0.777591 1 0 0
0.307369 0.656296 0 0 0 -1
0.652827 0.562816 1 0 0 1
0.845999 0.411698 1 0 0 1
0.588006 1 0.646178 0 1 0
0.0281236 0.234139 1 0 0 1
1 0.782188 0.939285 1 0 0
0.624325 0 0.192344 0 -1 0
0.617372 0 0.947031 0 -1 0
0.174403 1 0.205184 0 1 0
0.458456 0 0.862027 0 -1 0
0.709129 0.574709 0 0 0 -1
0.909387 0 0.742972 0 -1 0
0.109198 1 0.172431 0 1 0
0.0469142 1 0.782122 0 1 0
0.0572895 0.575708 1 0 0 1
0.920047 0 0.871829 0 -1 0
0.384168 0.996088 1 0 0 1
0.286195 0 0.224196 0 -1 0
0.0648167 0.623859 1 0 0 1
0.221854 0.999296 1 0 0 1
0.432337 1 0.782131 0 1 0
0.319561 0.714334 0 0 0 -1
0.661286 0.785613 1 0 0 1
0.177674 1 0.938954 0 1 0
0.362896 1 0.981121 0 1 0
1 0.738631 0.380385 1 0 0
0.860842 0 0.169405 0 -1 0
0 0.334909 0.571882 -1 0 0
0.488721 1 0.495218 0 1 0
0.86593 1 0.322025 0 1 0
1 0.788339 0.387212 1 0 0
0.689966 0.0936367 0 0 0 -1
0 0.705358 0.074829 -1 0 0
0.838399 0 0.678418 0 -1 0
1 0.203999 0.448728 1 0 0
0.471657 1 0.248897 0 1 0
1 0.703614 0.93636 1 0 0
1 0.433885 0.135474 1 0 0
0.65747 0 0.592045 0 -1 0
0.825043 0 0.000866085 0 -1 0
1 0.206463 0.0226414 1 0 0
0.680303 1 0.499416 0 1 0
0.248452 0.331515 0 0 0 -1
0 0.121256 0.520147 -1 0 0
0.639476 1 0.300159 0 1 0
0.627863 1 0.244861 0 1 0
1 0.198418 0.263662 1 0 0
0.725909 1 0.133749 0 1 0
0 0.12341 0.805143 -1 0 0
0.768371 0.0145399 0 0 0 -1
0.825842 0.108961 1 0 0 1
0.161057 1 0.470474 0 1 0
0 0.0563071 0.0902208 -1 0 0
0.364697 0.184863 1 0 0 1
0.972308 0 0.758046 0 -1 0
0 0.00822109 0.651053 -1 0 0
0 0.0562935 0.729189 -1 0 0
0 0.648611 0.867822 -1 0 0
0.0926694 0.575462 0 0 0 -1
1 0.402475 0.943801 1 0 0
0 0.713106 0.841013 -1 0 0
0.963028 0 0.623878 0 -1 0
0.637706 1 0.920197 0 1 0
0.956862 0.829091 0 0 0 -1
0.714551 0.851065 1 0 0 1
1 0.676237 0.970287 1 0 0
0 0.543907 0.834254 -1 0 0
0.0151318 0.573634 0 0 0 -1
0.350743 0 0.473963 0 -1 0
0.493286 1 0.230073 0 1 0
1 0.729254 0.557567 1 0 0
0.44532 1 0.959431 0 1 0
0.932449 0.471896 0 0 0 -1
0.351487 1 0.856568 0 1 0
1 0.159133 0.314455 1 0 0
1 0.549001 0.926523 1 0 0
0.565942 1 0.881239 0 1 0
0.88488 0 0.945013 0 -1 0
0.936519 0.818744 1 0 0 1
0.267958 0 0.591174 0 -1 0
0 0.807324 0.178847 -1 0 0
0.319848 0 0.860684 0 -1 0
1 0.668423 0.425713 1 0 0
1 0.232359 0.959202 1 0 0
1 0.145417 0.471281 1 0 0
1 0.09947 0.303878 1 0 0
0.180591 0.0974858 0 0 0 -1
0.899961 0 0.49188 0 -1 0
0.147626 0.6828 1 0 0 1
0.298672 1 0.15856 0 1 0
0.245677 0 0.157798 0 -1 0
0.692596 0.286024 0 0 0 -1
1 0.247633 0.351366 1 0 0
0.914853 0.415191 1 0 0 1
0 0.754283 0.107941 -1 0 0
0 0.664746 0.605893 -1 0 0
1 0.418366 0.974226 1 0 0
0.567552 0 0.0609469 0 -1 0
0.647667 1 0.0663402 0 1 0
0.960087 1 0.118958 0 1 0
0.139546 0.758858 1 0 0 1
0.0328595 1 0.613218 0 1 0
0.596846 1 0.907647 0 1 0
0.976852 0.551621 0 0 0 -1
0.559078 0.60084 1 0 0 1
1 0.568853 0.547823 1 0 0
0 0.896736 0.966063 -1 0 0
0.227911 0.990498 1 0 0 1
0.483736 0.698427 0 0 0 -1
0 0.377581 0.436738 -1 0 0
0.46981 0.863106 1 0 0 1
0 0.831308 0.60586 -1 0 0
0 0.489113 0.905086 -1 0 0
0.650735 0.564481 1 0 0 1
1 0.497459 0.594439 1 0 0
0 0.655365 0.0267908 -1 0 0
0.805802 0.778531 0 0 0 -1
0.48179 0.700085 0 0 0 -1
0 0.269391 0.420807 -1 0 0
0.640108 1 0.873299 0 1 0
1 0.581426 0.160528 1 0 0
0.746645 0 0.443528 0 -1 0
0.775105 1 0.374119 0 1 0
1 0.266594 0.869395 1 0 0
0 0.0832086 0.680974 -1 0 0
0 0.786561 0.684293 -1 0 0
0.927246 0.787266 0 0 0 -1
1 0.604571 0.540131 1 0 0
0.783245 0.235989 1 0 0 1
0 0.472711 0.922922 -1 0 0
0.344266 0 0.58667 0 -1 0
0.0216724 0 0.195604 0 -1 0
0 0.430531 0.72777 -1 0 0
0.422689 1 0.11585 0 1 0
0 0.705193 0.893065 -1 0 0
0 0.816142 0.693288 -1 0 0
0.952104 0.739434 1 0 0 1
0 0.391015 0.133707 -1 0 0
0.624602 0.674702 0 0 0 -1
0 0.968867 0.673814 -1 0 0
0.0665688 1 0.0106955 0 1 0
0.47031 0.734231 0 0 0 -1
0.0908019 0 0.00414668 0 -1 0
0.905006 1 0.0917906 0 1 0
1 0.560996 0.849949 1 0 0
0.675243 0.62516 0 0 0 -1
0.192139 0.75933 0 0 0 -1
0.91161 0 0.381671 0 -1 0
0.473978 0.894926 1 0 0 1
0.0824891 1 0.321801 0 1 0
0.385715 1 0.63942 0 1 0
0.62982 1 0.98322 0 1 0
0.667116 1 0.0894031 0 1 0
0.998085 1 0.730188 0 1 0
0 0.289453 0.999851 -1 0 0
0.445413 1 0.3272 0 1 0
0.766384 0 0.751282 0 -1 0
0.67683 0.179861 1 0 0 1
0.469302 0.347916 1 0 0 1
0.612141 1 0.914627 0 1 0
0.269325 0.897837 1 0 0 1
0 0.0053767 0.290917 -1 0 0
0.182465 1 0.149422 0 1 0
0.103724 0 0.896085 0 -1 0
1 0.275494 0.672249 1 0 0
1 0.867654 0.0991653 1 0 0
0 0.384983 0.880222 -1 0 0
0.759711 0.697867 1 0 0 1
0.444927 0.731996 1 0 0 1
0.433642 0.550875 0 0 0 -1
0.020162 0.326196 0 0 0 -1
0.150677 0.42672 1 0 0 1
0.956084 0 0.270185 0 -1 0
0.687625 0.00120926 0 0 0 -1
0.758514 0.39024 0 0 0 -1
0 0.607866 0.0967922 -1 0 0
0.489347 0 0.486108 0 -1 0
0.951255 1 0.864578 0 1 0
0.210711 0.640811 1 0 0 1
0.0527061 0.372351 1 0 0 1
0.449984 1 0.377694 0 1 0
0.359332 0.445399 0 0 0 -1
0.624821 0.278345 0 0 0 -1
0.434865 1 0.379733 0 1 0
0.201615 0.317314 0 0 0 -1
0.93033 0.740671 1 0 0 1
0.675281 0.903057 1 0 0 1
0.979728 0 0.31906 0 -1 0
0.12854 0.744974 1 0 0 1
0.461296 0.818131 1 0 0 1
0.51926 0.740129 1 0 0 1
0.944896 0.136601 1 0 0 1
0.596325 0 0.811424 0 -1 0
0.326787 1 0.488391 0 1 0
0.470078 1 0.423008 0 1 0
0.50666 0.608821 1 0 0 1
0.400319 0.908882 0 0 0 -1
1 0.27334 0.37262 1 0 0
0.798319 0.796107 1 0 0 1
0.69276 0.795461 0 0 0 -1
0.61027 0 0.978274 0 -1 0
0 0.856489 0.468617 -1 0 0
0.626213 1 0.326991 0 1 0
0.112092 1 0.310585 0 1 0
0.935083 0.640957 0 0 0 -1
0.36266 0.709867 0 0 0 -1
0.264849 0 0.854223 0 -1 0
0.640129 0 0.0965347 0 -1 0
0.532594 1 0.124719 0 1 0
0.778868 0.777936 0 0 0 -1
0 0.148967 0.0820505 -1 0 0
0.0738221 0 0.78777 0 -1 0
1 0.0963951 0.253236 1 0 0
0.934322 0.00936526 1 0 0 1
0.887727 0 0.166076 0 -1 0
0.820269 0.992032 1 0 0 1
0.523229 1 0.576196 0 1 0
0.928496 0.294124 1 0 0 1
0.258979 0.707077 1 0 0 1
0.581708 0.113776 0 0 0 -1
0.764584 0.588122 1 0 0 1
0.730618 0.0665072 1 0 0 1
0.00610024 0 0.308137 0 -1 0
0.896734 0.198935 0 0 0 -1
0.422588 0.410174 0 0 0 -1
0 0.632768 0.269835 -1 0 0
0 0.108831 0.902491 -1 0 0
1 0.18168 0.685323 1 0 0
0.987954 0.549529 0 0 0 -1
0.534795 0.304722 1 0 0 1
0.270696 0.24608 0 0 0 -1
0.578207 0.561266 0 0 0 -1
0.779681 0.981213 1 0 0 1
0.836946 0 0.342027 0 -1 0
0.198773 0.950123 1 0 0 1
0.545887 0.332403 0 0 0 -1
0.923539 0.0510319 0 0 0 -1
0 0.315204 0.329834 -1 0 0
0.664621 0 0.42642 0 -1 0
0 0.68799 0.673606 -1 0 0
0.947772 0.532582 0 0 0 -1
0.396566 0.356202 0 0 0 -1
0.0804996 0.199814 1 0 0 1
0.685863 0.586859 0 0 0 -1
0 0.868196 0.319334 -1 0 0
0.280148 0.248221 1 0 0 1
0.837924 0 0.380548 0 -1 0
0.328211 0.9622 0 0 0 -1
0.915097 1 0.712149 0 1 0
0.0638592 1 0.738537 0 1 0
0.00934619 0.683976 0 0 0 -1
0.685524 1 0.420348 0 1 0
0.0488866 1 0.921788 0 1 0
0.0748388 0.994443 1 0 0 1
0.342274 0 0.243792 0 -1 0
0.967893 0 0.867708 0 -1 0
1 0.756779 0.479292 1 0 0
1 0.0593853 0.408637 1 0 0
0.53546 0 0.619763 0 -1 0
1 0.531351 0.936113 1 0 0
0.279279 0 0.470834 0 -1 0
0 0.0287543 0.941613 -1 0 0
0 0.101691 0.597835 -1 0 0
1 0.602226 0.565694 1 0 0
0.534122 1 0.925594 0 1 0
0.595717 1 0.300583 0 1 0
0.912811 1 0.0713688 0 1 0
0 0.175609 0.255813 -1 0 0
0.390967 0 0.113122 0 -1 0
1 0.046711 0.383369 1 0 0
0.865669 1 0.488235 0 1 0
0 0.741526 0.702426 -1 0 0
0 0.227848 0.992847 -1 0 0
0.96467 0.244532 0 0 0 -1
0.178681 0.17279 0 0 0 -1
1 0.225041 0.582712 1 0 0
0.548132 0.852728 1 0 0 1
0.811799 0.204814 1 0 0 1
0.514071 1 0.560536 0 1 0
1 0.431675 0.750179 1 0 0
1 0.776351 0.395267 1 0 0
0 0.089247 0.0907656 -1 0 0
1 0.00387174 0.885357 1 0 0
0.00553166 1 0.0413551 0 1 0
0.614032 0.163155 0 0 0 -1
1 0.580724 0.0917857 1 0 0
0.452711 0.619039 0 0 0 -1
0.697274 1 0.745139 0 1 0
1 0.496003 0.0661787 1 0 0
0.619409 1 0.21622 0 1 0
0.995567 0.233023 1 0 0 1
0.387716 0.201747 1 0 0 1
0.339906 0.284155 0 0 0 -1
0 0.781294 0.97169 -1 0 0
0.558607 0.117474 0 0 0 -1
0.340411 0 0.831446 0 -1 0
0.14343 1 0.356067 0 1 0
0.00118721 0.653734 0 0 0 -1
0.870955 0.349015 1 0 0 1
0.702792 0.942237 1 0 0 1
1 0.941763 0.179594 1 0 0
0.0988325 0 0.310489 0 -1 0
0.1398 0.20491 1 0 0 1
1 0.977851 0.526018 1 0 0
0.910691 1 0.583484 0 1 0
0.177063 0.519884 0 0 0 -1
0.324337 0.438059 0 0 0 -1
0.714631 0.00856751 1 0 0 1
0 0.184307 0.330299 -1 0 0
0.798325 0 0.274998 0 -1 0
0.116266 0 0.569851 0 -1 0
0 0.444824 0.455866 -1 0 0
0.0596433 0.926771 1 0 0 1
0.738708 0 0.326202 0 -1 0
0.559053 0.216984 1 0 0 1
0.73761 0.186949 1 0 0 1
0.625793 0.0790501 1 0 0 1
0.59997 1 0.458938 0 1 0
1 0.333406 0.311516 1 0 0
0.969504 0 0.567924 0 -1 0
0 0.206178 0.716831 -1 0 0
0.279428 0.453953 0 0 0 -1
1 0.278967 0.157772 1 0 0
0.935037 1 0.249584 0 1 0
0.914475 1 0.655926 0 1 0
0.959144 0.236926 1 0 0 1
0 0.934116 0.0217241 -1 0 0
1 0.783459 0.435687 1 0 0
0.00131559 1 0.0706263 0 1 0
0.818653 0.31482 1 0 0 1
0.235281 0.400746 0 0 0 -1
0.450324 0 0.701827 0 -1 0
0.331564 0.630011 0 0 0 -1
0.623285 0.831505 0 0 0 -1
0.344194 0.0741581 0 0 0 -1
0.571574 0.319314 0 0 0 -1
0 0.409621 0.0862317 -1 0 0
0 0.534712 0.973093 -1 0 0
0 0.245504 0.819186 -1 0 0
0.171417 0.207208 1 0 0 1
0.14287 1 0.0141191 0 1 0
1 0.698217 0.338626 1 0 0
0.249212 1 0.862281 0 1 0
0 0.314015 0.68272 -1 0 0
0.693536 0.544389 1 0 0 1
1 0.440672 0.0190593 1 0 0
0 0.430875 0.786591 -1 0 0
0.305216 0.667198 0 0 0 -1
0.2512 1 0.664718 0 1 0
1 0.685222 0.771654 1 0 0
1 0.106055 0.331811 1 0 0
0.0191472 0.705748 0 0 0 -1
0 0.264522 0.972554 -1 0 0
0.785556 0 0.220561 0 -1 0
0.671009 1 0.778061 0 1 0
0 0.0237037 0.211996 -1 0 0
0.216555 1 0.87716 0 1 0
0 0.0483235 0.0615492 -1 0 0
0.0284636 1 0.104053 0 1 0
0.523655 0 0.665087 0 -1 0
0.941054 1 0.124743 0 1 0
0.506962 0.745475 0 0 0 -1
0.701871 1 0.178505 0 1 0
1 0.256148 0.702919 1 0 0
0 0.0656974 0.298451 -1 0 0
0 0.388217 0.984952 -1 0 0
0.790342 0.274359 0 0 0 -1
0 0.107863 0.826888 -1 0 0
0.0389247 1 0.925427 0 1 0
0.362966 0.878017 0 0 0 -1
1 0.135329 0.580628 1 0 0
0.0860088 0.182644 1 0 0 1
0.597816 1 0.813412 0 1 0
0.34309 0.856855 0 0 0 -1
0.731125 0.818498 1 0 0 1
0.0122753 0.037501 0 0 0 -1
0 0.717853 0.129168 -1 0 0
0.437994 0.120594 1 0 0 1
1 0.171637 0.359064 1 0 0
0 0.39852 0.109772 -1 0 0
0 0.293054 0.443553 -1 0 0
0.929255 0 0.16194 0 -1 0
0.978094 0.564543 1 0 0 1
0 0.384967 0.44209 -1 0 0
1 0.306857 0.792965 1 0 0
0.304227 1 0.133194 0 1 0
0.282401 0.69199 0 0 0 -1
0.0524577 0.560708 1 0 0 1
1 0.802338 0.960671 1 0 0
1 0.459507 0.8411 1 0 0
0 0.85989 0.112538 -1 0 0
0.913355 0.461508 0 0 0 -1
0 0.6643 0.766618 -1 0 0
0.371953 0.49362 0 0 0 -1
0.0886637 0 0.927845 0 -1 0
1 0.396854 0.505143 1 0 0
1 0.633224 0.153466 1 0 0
0.882776 0.665792 1 0 0 1
0.0233264 1 0.491227 0 1 0
0 0.806069 0.984434 -1 0 0
0.994569 0.378903 1 0 0 1
0 0.371685 0.887929 -1 0 0
0.0167637 0 0.640543 0 -1 0
0.256535 1 0.172962 0 1 0
0.341002 0 0.518484 0 -1 0
0 0.932987 0.383078 -1 0 0
0.038248 0 0.880845 0 -1 0
0.696938 1 0.483199 0 1 0
1 0.889417 0.957633 1 0 0
0.549101 0.322778 1 0 0 1
0.116618 0 0.619497 0 -1 0
0.940957 1 0.115184 0 1 0
0.931052 0.340246 1 0 0 1
0.953472 0.514669 1 0 0 1
0.385038 1 0.0948725 0 1 0
1 0.79619 0.893861 1 0 0
0.170304 0 0.653964 0 -1 0
0 0.674114 0.350336 -1 0 0
0 0.329599 0.0485797 -1 0 0
0 0.722854 0.360954 -1 0 0
1 0.566794 0.788364 1 0 0
0.412146 0.195356 1 0 0 1
0.913763 1 0.580573 0 1 0
0.193495 0.367554 0 0 0 -1
1 0.998309 0.430444 1 0 0
0 0.728275 0.654031 -1 0 0
0.367903 1 0.151958 0 1 0
1 0.727144 0.616493 1 0 0
0 0.97088 0.407393 -1 0 0
0.00677553 0.85516 1 0 0 1
1 0.967268 0.644272 1 0 0
0.028268 0.00242418 1 0 0 1
0 0.301836 0.0129328 -1 0 0
0.238478 0.00739117 1 0 0 1
0 0.930363 0.0387936 -1 0 0
0.767342 1 0.450441 0 1 0
0.356491 0.539689 0 0 0 -1
0.423379 1 0.276256 0 1 0
0.374496 0 0.962861 0 -1 0
0 0.46128 0.470602 -1 0 0
0.349104 0.872548 1 0 0 1
0.639427 1 0.31563 0 1 0
0 0.364002 0.505578 -1 0 0
0.0609209 0.427416 1 0 0 1
0.259261 0 0.575633 0 -1 0
1 0.099581 0.842894 1 0 0
0 0.276228 0.055043 -1 0 0
0.695629 0.128183 0 0 0 -1
0 0.370155 0.651081 -1 0 0
0.0439551 0 0.22638 0 -1 0
1 0.882116 0.828128 1 0 0
0.101072 0.482048 0 0 0 -1
0.0107575 1 0.18997 0 1 0
0.526577 1 0.450309 0 1 0
0 0.497007 0.897247 -1 0 0
0.673556 0 0.836473 0 -1 0
0.992144 0.0917452 0 0 0 -1
0 0.976553 0.561725 -1 0 0
1 0.794939 0.90629 1 0 0
0 0.525645 0.363892 -1 0 0
0.318403 0.162299 0 0 0 -1
1 0.832014 0.948203 1 0 0
0 0.259413 0.778804 -1 0 0
1 0.46177 0.382777 1 0 0
0.904769 0.880127 1 0 0 1
0.349036 0 0.761999 0 -1 0
0.288905 1 0.458584 0 1 0
0 0.251904 0.0337856 -1 0 0
0.478055 0.257818 1 0 0 1
0.969673 0.172479 1 0 0 1
0.376967 1 0.679308 0 1 0
0 0.318521 0.102935 -1 0 0
0.524649 1 0.543903 0 1 0
1 0.328884 0.78853 1 0 0
0.19355 0.952233 0 0 0 -1
1 0.831488 0.499854 1 0 0
0.490622 1 0.227511 0 1 0
0 0.579152 0.272134 -1 0 0
0.299408 1 0.233691 0 1 0
0.688816 0 0.995142 0 -1 0
0.306336 0.193525 1 0 0 1
0 0.83386 0.588616 -1 0 0
0 0.778109 0.490411 -1 0 0
0 0.0331573 0.880913 -1 0 0
0.862459 0 0.250199 0 -1 0
0.954986 0.88331 0 0 0 -1
0.565279 1 0.678159 0 1 0
0 0.787269 0.544101 -1 0 0
0.377494 1 0.515705 0 1 0
0.308031 0.91763 0 0 0 -1
0.254414 0.878499 0 0 0 -1
0 0.375228 0.897414 -1 0 0
0 0.727658 0.879997 -1 0 0
1 0.0147556 0.644551 1 0 0
0.913048 0.622563 0 0 0 -1
1 0.190612 0.103644 1 0 0
0.197332 0 0.92434 0 -1 0
0.106725 0.307671 1 0 0 1
0.917443 0.549998 1 0 0 1
0.868339 0.469639 1 0 0 1
0.314503 1 0.976754 0 1 0
0.947172 1 0.345131 0 1 0
0.155453 1 0.594927 0 1 0
1 0.807546 0.674581 1 0 0
0.457079 0.601713 1 0 0 1
0.90622 0 0.757819 0 -1 0
0.512508 0 0.247667 0 -1 0
0.885165 0.0226712 1 0 0 1
0 0.629765 0.917423 -1 0 0
0 0.698777 0.778295 -1 0 0
0.0599533 1 0.449395 0 1 0
1 0.620582 0.987381 1 0 0
0.946939 0.287532 1 0 0 1
1 0.681612 0.707695 1 0 0
1 0.792699 0.762819 1 0 0
0.920318 0 0.994167 0 -1 0
0.625201 0.424496 1 0 0 1
0.991841 0.622845 1 0 0 1
0.869524 0.118878 0 0 0 -1
1 0.225555 0.168157 1 0 0
0 0.630076 0.594684 -1 0 0
0 0.449245 0.777728 -1 0 0
0.427234 0.543944 1 0 0 1
1 0.435512 0.984818 1 0 0
0.651943 0 0.279392 0 -1 0
0.0302341 0.237693 1 0 0 1
0.369836 0 0.137024 0 -1 0
0.289519 1 0.540204 0 1 0
0.831856 1 0.0410037 0 1 0
0.885464 1 0.362713 0 1 0
1 0.408962 0.052245 1 0 0
0.131844 0 0.869284 0 -1 0
0.000229478 0.892522 0 0 0 -1
1 0.303494 0.311641 1 0 0
0.513505 0.430479 1 0 0 1
0.827465 0 0.140362 0 -1 0
1 0.555431 0.878987 1 0 0
0.989331 0 0.519975 0 -1 0
0.697565 0.535553 0 0 0 -1
0.8049 0 0.231527 0 -1 0
0.509186 1 0.437891 0 1 0
1 0.967626 0.534589 1 0 0
0.767479 0.656655 0 0 0 -1
0.947771 0 0.276041 0 -1 0
0.729812 0.974642 0 0 0 -1
0.619133 0.108275 1 0 0 1
0.973672 0.0232191 1 0 0 1
0.596566 0 0.0167057 0 -1 0
0.656925 0 0.668529 0 -1 0
0.170383 0.948653 1 0 0 1
0 0.173276 0.148879 -1 0 0
1 0.699236 0.821547 1 0 0
1 0.211459 0.075609 1 0 0
0.404018 0.391305 1 0 0 1
0.728356 0 0.891591 0 -1 0
0.411743 0.0451955 0 0 0 -1
0.386191 0 0.898545 0 -1 0
0 0.286268 0.417446 -1 0 0
0.950136 0.656997 0 0 0 -1
0.259683 0.865687 1 0 0 1
0.109408 1 0.0592766 0 1 0
0.515128 1 0.62369 0 1 0
0.527513 0.87914 0 0 0 -1
0.577339 0.43348 0 0 0 -1
0.167553 0.9151 0 0 0 -1
0.914154 0.978093 0 0 0 -1
0.59886 0.0924807 0 0 0 -1
0.604329 1 0.566152 0 1 0
0.629557 0.547006 0 0 0 -1
0.518577 0 0.177639 0 -1 0
0.627942 0.674061 1 0 0 1
0.945556 0.667941 1 0 0 1
0.234758 1 0.485424 0 1 0
0.516935 1 0.73475 0 1 0
0.677308 1 0.428335 0 1 0
0.149361 0.506998 0 0 0 -1
0.256826 1 0.405956 0 1 0
0 0.299084 0.118416 -1 0 0
0 0.0141555 0.801063 -1 0 0
0.212799 1 0.189071 0 1 0
0.448814 0.114748 1 0 0 1
0 0.53633 0.223206 -1 0 0
0.255949 0.61889 1 0 0 1
1 0.553116 0.919497 1 0 0
0.889992 0.32521 1 0 0 1
0.776849 1 0.87367 0 1 0
1 0.932771 0.496844 1 0 0
0 0.267307 0.159371 -1 0 0
0.882229 0.28222 0 0 0 -1
0.147924 0.581698 0 0 0 -1
0 0.440904 0.464551 -1 0 0
0.61254 1 0.825618 0 1 0
1 0.771314 0.486108 1 0 0
0.147013 1 0.109598 0 1 0
0.079751 1 0.596339 0 1 0
0 0.926314 0.670067 -1 0 0
0.196789 0.825965 1 0 0 1
0 0.392991 0.435617 -1 0 0
0 0.795097 0.669346 -1 0 0
0.310941 1 0.311113 0 1 0
0.617662 0.309339 0 0 0 -1
1 0.464278 0.429616 1 0 0
0.941373 0.210534 0 0 0 -1
0.598011 0 0.0084548 0 -1 0
1 0.494348 0.0861011 1 0 0
0 0.0226762 0.517015 -1 0 0
0.993222 0.458013 0 0 0 -1
0 0.451019 0.903746 -1 0 0
0.419526 0 0.0488329 0 -1 0
0.0937198 1 0.663344 0 1 0
0.189476 0.930942 0 0 0 -1
0.443032 0.929258 0 0 0 -1
1 0.610524 0.252093 1 0 0
0.159824 0.966061 0 0 0 -1
1 0.236836 0.00595754 1 0 0
0.91364 0 0.514324 0 -1 0
0.701337 0.138503 0 0 0 -1
0.785903 0 0.30811 0 -1 0
0.61161 1 0.135405 0 1 0
0.425398 0.198524 1 0 0 1
0.940479 1 0.590606 0 1 0
0.839472 1 0.91857 0 1 0
0.166243 1 0.216322 0 1 0
0 0.473473 0.967506 -1 0 0
0.949323 0.185187 0 0 0 -1
0.149485 0 0.432312 0 -1 0
0.227329 0 0.863485 0 -1 0
0.656082 0 0.171013 0 -1 0
1 0.943586 0.495412 1 0 0
0.808039 0.0475765 1 0 0 1
0.315976 1 0.653746 0 1 0
0 0.754173 0.295736 -1 0 0
0.0621642 1 0.939542 0 1 0
0.603269 0 0.195226 0 -1 0
0.72923 0.159047 1 0 0 1
0.894666 1 0.946754 0 1 0
0.0886253 0.508092 1 0 0 1
0.507016 1 0.725074 0 1 0
0.285015 0 0.959984 0 -1 0
1 0.111105 0.125775 1 0 0
0.531971 0.0490438 1 0 0 1
0.414269 0.623184 0 0 0 -1
1 0.342813 0.909513 1 0 0
0.823817 0.971799 1 0 0 1
1 0.488016 0.723602 1 0 0
0.0265765 1 0.871791 0 1 0
1 0.0493914 0.619964 1 0 0
0 0.62824 0.173162 -1 0 0
0 0.0314775 0.797331 -1 0 0
0.23363 0.713654 0 0 0 -1
0 0.914664 0.593782 -1 0 0
0.557351 1 0.695529 0 1 0
0.885357 1 0.969501 0 1 0
0.648991 0.113023 0 0 0 -1
0.296255 0 0.214545 0 -1 0
1 0.562912 0.158375 1 0 0
0.562768 1 0.0619496 0 1 0
1 0.0211636 0.334467 1 0 0
0.713229 0.0128382 0 0 0 -1
1 0.378439 0.368294 1 0 0
0.385072 1 0.68933 0 1 0
0 0.409998 0.610192 -1 0 0
0.138635 0 0.805847 0 -1 0
0.728563 1 0.00429231 0 1 0
0 0.682266 0.348085 -1 0 0
0.501427 1 0.0524793 0 1 0
0.656888 0.676403 1 0 0 1
0.0878769 0 0.104646 0 -1 0
1 0.381832 0.00926631 1 0 0
1 0.763794 0.495364 1 0 0
0 0.542304 0.321865 -1 0 0
0.030878 1 0.538377 0 1 0
0.650455 0 0.0523351 0 -1 0
1 0.605308 0.626703 1 0 0
1 0.725431 0.487157 1 0 0
0.366122 0 0.919477 0 -1 0
1 0.732319 0.767444 1 0 0
1 0.49944 0.219334 1 0 0
0.406425 0.370087 1 0 0 1
0.211508 1 0.240269 0 1 0
0 0.290728 0.52495 -1 0 0
0.88728 0.0194086 1 0 0 1
1 0.884164 0.106593 1 0 0
0.172411 0.716541 1 0 0 1
0.386535 0.651933 1 0 0 1
0.956316 0.528371 1 0 0 1
0.618181 1 0.817262 0 1 0
1 0.244208 0.94967 1 0 0
0.279131 1 0.887337 0 1 0
1 0.11787 0.207925 1 0 0
0.737728 0.907775 1 0 0 1
0.395747 0 0.43291 0 -1 0
0.523389 0.446374 1 0 0 1
0.607313 0.43819 1 0 0 1
0.754409 0 0.5211 0 -1 0
0 0.284016 0.36087 -1 0 0
1 0.866836 0.373986 1 0 0
0.649602 0.785834 0 0 0 -1
0.484781 0.704723 1 0 0 1
0.305971 0.826478 0 0 0 -1
