-9869.77 26.7999 39.13 0 0 -1
-5573.97 7058.37 -1.01145e-11 2.57272e-16 1.71809e-15 1
-5862.19 1476.67 29.87 0 0 -1
-5180.45 3151.61 29.87 0 0 -1
-9376.62 3317.75 -4.34876e-12 2.25692e-18 1.23844e-15 1
-8667.03 4696.98 -6.05845e-12 2.25692e-18 1.23844e-15 1
-4741.4 -33.8971 39.13 0 0 -1
-5890.58 2431.69 550.64 0 0 -1
-5603.19 5203.24 -6.99169e-12 2.17946e-16 1.59426e-15 1
-1652.89 6605.78 -1.03457e-11 2.57272e-16 1.71809e-15 1
-10354.6 760.231 -1.17921e-12 2.25692e-18 1.23844e-15 1
340.613 866.518 29.87 0 0 -1
-952.625 1017.05 -1.51849e-12 2.25692e-18 1.23844e-15 1
-879.335 2209.03 106.621 1 0 0
-8350.54 5173.24 39.13 0 0 -1
-8841.8 5670.8 39.13 0 0 -1
-5270.71 3663.03 -4.78563e-12 2.25692e-18 1.23844e-15 1
400.323 3183.67 -5.08042e-12 2.17946e-16 1.59426e-15 1
637.435 2524.23 139.342 0 1 0
-1513.5 6786.88 39.13 0 0 -1
-3073.33 2198.96 -2.97742e-12 2.25692e-18 1.23844e-15 1
-8615.73 4770.95 39.13 0 0 -1
-9388.12 6072.13 -7.75987e-12 2.25692e-18 1.23844e-15 1
-386.422 6794.28 741.705 -0.999249 0 0.0387482
-2932.67 6517.74 382.133 0 1 0
-3624.33 5327.49 29.87 0 0 -1
-6618.04 4008.45 -5.21037e-12 2.25692e-18 1.23844e-15 1
-1027.13 1325.73 -1.9006e-12 2.25692e-18 1.23844e-15 1
-6246.16 4602.32 157.199 1 0 0
-5157.78 3762.92 29.87 0 0 -1
-7602.77 5271.95 39.13 0 0 -1
686.357 1591.41 -2.60428e-12 2.17946e-16 1.59426e-15 1
-5465.94 3354.11 29.87 0 0 -1
-10382.6 5920.11 39.13 0 0 -1
1749.16 1211.86 -8.60661e-13 -4.05073e-15 -1.33196e-16 1
2.57285 4232.99 -6.69495e-12 2.57272e-16 1.71809e-15 1
-8585.42 5626.1 -7.2093e-12 2.25692e-18 1.23844e-15 1
-401.516 5843.62 39.13 0 0 -1
-6054.23 2980.81 39.13 0 0 -1
-7225.6 7340.4 39.13 0 0 -1
-2228.12 4713.68 29.87 0 0 -1
1028.44 2303.39 185.787 0 1 0
-2343.17 6223.01 -9.51048e-12 2.57272e-16 1.71809e-15 1
-4994.18 130.703 39.13 0 0 -1
812.164 3490 29.87 0 0 -1
-2458.8 1109.48 700.842 -1 0 0
293.476 6830.7 -1.12329e-11 2.57272e-16 1.71809e-15 1
200.964 714.293 -1.14614e-12 2.25692e-18 1.23844e-15 1
-1355.24 4001.68 -6.00192e-12 2.17946e-16 1.59426e-15 1
365.291 3832.95 -6.1079e-12 2.17946e-16 1.59426e-15 1
-3900.93 1043.52 182.54 0 -1 0
595.364 651.698 340.597 0 0 1
-6194.76 3241.3 39.13 0 0 -1
-94.6573 77.3868 306.221 -0.382684 -0.923879 0
-9062.19 5009.78 39.13 0 0 -1
-1304.06 5451.32 -8.45199e-12 2.57272e-16 1.71809e-15 1
-1185.02 6734.76 721.48 -0.294296 0 0.955714
-6360.8 5313.19 -7.00185e-12 2.17946e-16 1.59426e-15 1
-5947.89 2812.09 39.13 0 0 -1
-198.839 717.788 327.596 0 0 1
-382.313 338.666 221.213 0 -1 0
-9663.53 5174.15 -6.64715e-12 2.25692e-18 1.23844e-15 1
-3673.84 6350.82 666.068 0 1 0
19.1317 3626.86 29.87 0 0 -1
-3678.58 4176.17 39.13 0 0 -1
-7296.55 6618.91 39.13 0 0 -1
-7944.03 5976 39.13 0 0 -1
2656.88 2922 119.577 1 0 -0.000328158
-5401.58 4909.67 -6.5676e-12 2.17946e-16 1.59426e-15 1
-1718.88 2749.01 29.87 0 0 -1
1254.64 154.207 29.87 0 0 -1
-9567.54 2854.58 -3.77472e-12 2.25692e-18 1.23844e-15 1
-3816.01 1330.45 39.13 0 0 -1
-6538.73 969.226 -1.44665e-12 2.25692e-18 1.23844e-15 1
109.813 1950.29 -3.05077e-12 2.17946e-16 1.59426e-15 1
-3423.73 708.195 452.37 0 0 -1
-1074.72 4047.76 485.16 0 0 -1
-3817.63 5290.19 -7.52849e-12 2.57272e-16 1.71809e-15 1
-3458.36 6243.49 -9.25877e-12 2.57272e-16 1.71809e-15 1
1197.46 3174.97 -4.41718e-12 1.5706e-16 2.66299e-15 1
2024.57 1066.77 24.3616 -1 0 0
-4625.43 3333.11 39.13 0 0 -1
-1765.32 5153.57 -7.82176e-12 2.57272e-16 1.71809e-15 1
-6098.9 5068.38 550.64 0 0 -1
-8669.38 2772.79 -3.67545e-12 2.25692e-18 1.23844e-15 1
-4798.27 6582.79 -9.49699e-12 2.57272e-16 1.71809e-15 1
-6477.77 2194.46 -2.96417e-12 2.25692e-18 1.23844e-15 1
-828.366 6521.04 1008.66 0.172254 -0.257664 0.950756
-3410.99 6271.97 -9.31988e-12 2.57272e-16 1.71809e-15 1
-9702.68 2735.89 39.13 0 0 -1
-618.64 -156.189 -6.62532e-14 2.25692e-18 1.23844e-15 1
-6125.01 2317.62 39.13 0 0 -1
-1587.45 5147.74 -7.85751e-12 2.57272e-16 1.71809e-15 1
-677.292 5772.49 39.13 0 0 -1
-3289.45 4194.28 39.13 0 0 -1
-8610.14 5849.7 39.13 0 0 -1
-7888.87 1715 29.87 0 0 -1
-4562.67 4082.72 39.13 0 0 -1
-3420.65 1837.16 29.87 0 0 -1
-1330.65 1679.84 29.87 0 0 -1
319.26 4680.67 -7.54558e-12 2.57272e-16 1.71809e-15 1
-10107 3266.61 39.13 0 0 -1
-8695.63 3534.33 39.13 0 0 -1
-1227.29 6107.36 39.13 0 0 -1
-4793.98 -5.02829 39.13 0 0 -1
-5052.45 4291.2 -5.65769e-12 2.17946e-16 1.59426e-15 1
2425.17 1374.35 3.12307e-14 5.44086e-16 2.54258e-15 1
-2115.03 4297.79 -6.3084e-12 2.17946e-16 1.59426e-15 1
-10035.5 2731.85 39.13 0 0 -1
-9497.99 962.392 39.13 0 0 -1
-2292.24 2814.5 -3.90502e-12 2.17946e-16 1.59426e-15 1
-7027.46 6646.23 -9.03248e-12 2.57272e-16 1.71809e-15 1
-6714.53 1763.84 -2.43034e-12 2.25692e-18 1.23844e-15 1
-5111.16 1536.62 29.87 0 0 -1
-3651.68 5143.08 39.13 0 0 -1
1888.52 1311.29 62.6647 0.42622 -0.555462 -0.714001
-7830.07 755.741 -1.17935e-12 2.25692e-18 1.23844e-15 1
-10360.8 2039.27 39.13 0 0 -1
-1340.01 3699.33 485.16 0 0 -1
-1621.42 1043.52 239.413 0 -1 0
-1123.78 948.752 -1.43352e-12 2.25692e-18 1.23844e-15 1
-9429.5 3377.74 39.13 0 0 -1
1228.43 1125.34 221.097 0 -1 0
-600.99 1898.91 129.968 0 1 0
-5232.39 3672.69 -4.79768e-12 2.25692e-18 1.23844e-15 1
-8664.07 728.795 -1.1441e-12 2.25692e-18 1.23844e-15 1
-668.341 5289.93 129.299 0 1 0
-10508.1 -249.024 39.13 0 0 -1
-1416.2 3876.02 698.875 1 0 0
-345.452 658.847 49.1832 0.923885 0.382669 0
-4007.95 879.946 304.554 1 0 0
-5333.29 3461.91 -4.53641e-12 2.25692e-18 1.23844e-15 1
-95.2677 5772.81 -9.31532e-12 2.57272e-16 1.71809e-15 1
-4847.68 -170.343 39.13 0 0 -1
-1457.48 6543.74 183.697 1 0 0
-7369.74 7208.78 -9.91092e-12 2.57272e-16 1.71809e-15 1
-10532 1465.22 15.5267 1 0 0
-1922.11 7293.87 -1.14586e-11 2.57272e-16 1.71809e-15 1
-2476.76 5545.63 -8.31232e-12 2.57272e-16 1.71809e-15 1
1265.47 1758.4 -2.74716e-12 -4.05073e-15 -1.33196e-16 1
-5950.68 4320.8 39.13 0 0 -1
-3877.6 7331.25 -1.10198e-11 2.57272e-16 1.71809e-15 1
-122.97 4519.32 -7.15458e-12 2.57272e-16 1.71809e-15 1
-5588.01 4096.04 29.87 0 0 -1
-4084.08 4714.08 -6.54292e-12 2.17946e-16 1.59426e-15 1
-850.259 5991.46 576.25 0 0 -1
-9948.95 2573.83 -3.42617e-12 2.25692e-18 1.23844e-15 1
-10532 4530.62 37.8173 1 0 0
-888.661 3945.52 704.435 -1 0 0
-2777.38 610.478 -1.01085e-12 2.25692e-18 1.23844e-15 1
-5450.97 5945.29 29.87 0 0 -1
-8299.66 680.073 -1.08458e-12 2.25692e-18 1.23844e-15 1
281.661 4105.46 -6.54765e-12 2.57272e-16 1.71809e-15 1
-20.9486 2474.29 29.87 0 0 -1
-3362.12 6362.13 670.75 0 0 -1
-1841.97 1161.09 39.13 0 0 -1
-2764.25 6205.71 39.13 0 0 -1
-574.944 6789.7 576.25 0 0 -1
-3868.81 4662.84 -6.50816e-12 2.17946e-16 1.59426e-15 1
-7260.53 1195.55 -1.72532e-12 2.25692e-18 1.23844e-15 1
-6792.96 6826.75 -9.40295e-12 2.57272e-16 1.71809e-15 1
-5780.25 4415.23 390.641 -1 0 0
2045.25 2792.74 479.908 0 -0.431041 0.902333
-8898.55 560.326 39.13 0 0 -1
-5404.35 5171.94 29.87 0 0 -1
-4220.99 2270.99 39.13 0 0 -1
-6227.96 7077.69 -9.97945e-12 2.57272e-16 1.71809e-15 1
1281.84 3369.56 40.43 0 0 -1
-2915.24 6837.59 -1.04192e-11 2.57272e-16 1.71809e-15 1
70.9092 936.657 -1.4263e-12 2.17946e-16 1.59426e-15 1
-6796.95 5875.86 39.13 0 0 -1
-738.946 -261.865 219.601 0 1 0
-9899.18 6411.93 -8.17954e-12 2.25692e-18 1.23844e-15 1
-5520.13 2126.48 29.87 0 0 -1
531.839 1140.79 29.87 0 0 -1
-194.482 2408.57 -3.71507e-12 2.17946e-16 1.59426e-15 1
-176.135 772.162 310.468 1 0 0
-1873.04 6810.04 29.87 0 0 -1
-6849.91 1316.06 39.13 0 0 -1
-8397.47 4495.46 -5.80949e-12 2.25692e-18 1.23844e-15 1
-888.661 3871.37 646.597 -1 0 0
2256.76 2656.4 39.1421 0 0 1
-1457.48 6513.86 504.171 1 0 0
-6928.17 1457.88 29.87 0 0 -1
-7422.23 3120.82 39.13 0 0 -1
-4401.98 5505.65 29.87 0 0 -1
-6083.37 7226.2 39.13 0 0 -1
-6455.06 5681.31 39.13 0 0 -1
-10428.3 6811.93 -8.67372e-12 2.25692e-18 1.23844e-15 1
-1697.98 4345.67 -6.47562e-12 2.17946e-16 1.59426e-15 1
-1420.53 2536.93 39.13 0 0 -1
-6083.22 3469.42 550.64 0 0 -1
-1124.56 3827.44 485.16 0 0 -1
-2768.57 3200.7 -4.41691e-12 2.17946e-16 1.59426e-15 1
-9425.42 5494.5 -7.04443e-12 2.25692e-18 1.23844e-15 1
-6698.57 3774.24 -4.92013e-12 2.25692e-18 1.23844e-15 1
-6821.88 2078.77 -2.82012e-12 2.25692e-18 1.23844e-15 1
-2112.36 3401.01 29.87 0 0 -1
-2995.44 7349.69 394.334 0 -1 0
-8566.54 3141.93 39.13 0 0 -1
-4945.41 1566.5 -2.18994e-12 2.25692e-18 1.23844e-15 1
-1724.99 362.796 88.578 0 1 0
-9429.46 1973.97 -2.68444e-12 2.25692e-18 1.23844e-15 1
-10320.6 1556.19 -2.16503e-12 2.25692e-18 1.23844e-15 1
-6725 808.304 -1.24694e-12 2.25692e-18 1.23844e-15 1
-10381.3 4512.8 -5.82649e-12 2.25692e-18 1.23844e-15 1
-1813.36 453.918 430.12 0 0 -1
-783.85 3198.37 208.039 -1 0 0
-6204.94 5236.33 72.3472 0 -1 0
-9057.62 3136.02 39.13 0 0 -1
93.4962 -158.013 -6.56019e-14 2.25692e-18 1.23844e-15 1
587.939 475.573 -8.51376e-13 2.25692e-18 1.23844e-15 1
-1699.42 262.561 -5.82412e-13 2.25692e-18 1.23844e-15 1
-1171.89 4180.75 730.864 0 -0.48123 -0.876594
-3695.24 -103.476 -1.24592e-13 2.25692e-18 1.23844e-15 1
-9659.18 1502.73 29.87 0 0 -1
-7730.38 2611.57 -3.47791e-12 2.25692e-18 1.23844e-15 1
-9090.96 4921.18 39.13 0 0 -1
-3768.7 2868.33 39.13 0 0 -1
-3809.86 362.796 227.513 0 1 0
1669.3 2453.76 40.43 0 0 -1
167.096 5097.26 29.87 0 0 -1
2613.18 2277.27 40.43 0 0 -1
-6870.86 314.851 39.13 0 0 -1
-816.599 6873.8 576.25 0 0 -1
262.416 1568.62 29.87 0 0 -1
-8946.55 5790.29 39.13 0 0 -1
-7758.81 1252.91 -1.79522e-12 2.25692e-18 1.23844e-15 1
-1078.28 7327.05 39.13 0 0 -1
-4688.62 4141.61 39.13 0 0 -1
-1671.3 1224.96 -1.77435e-12 2.25692e-18 1.23844e-15 1
-7657.17 2501.64 39.13 0 0 -1
-50.7472 6316.33 -1.02606e-11 2.57272e-16 1.71809e-15 1
-4263.86 1313.06 39.13 0 0 -1
-218.225 4863.84 39.13 0 0 -1
-6087.49 3274.11 39.13 0 0 -1
-2478.86 7178.24 197.155 -1 0 0
-5717.94 2768.1 -3.67631e-12 2.25692e-18 1.23844e-15 1
-922.74 3163.05 117.323 0 1 0
-9144.22 2182.57 39.13 0 0 -1
-9520.33 7030.1 -9.05066e-12 2.57272e-16 1.71809e-15 1
-4373.42 5105.27 -7.10351e-12 2.17946e-16 1.59426e-15 1
-8112.88 -222.674 39.13 0 0 -1
-9199.7 1880.74 -2.56951e-12 2.25692e-18 1.23844e-15 1
-2642.12 1381.21 -1.96567e-12 2.25692e-18 1.23844e-15 1
323.429 3963.51 29.87 0 0 -1
-7197.45 1515.13 29.87 0 0 -1
-1673.17 1533.39 -2.15632e-12 2.25692e-18 1.23844e-15 1
-10428.8 1937.89 -2.63751e-12 2.25692e-18 1.23844e-15 1
-4557.13 6517.74 269.379 0 1 0
-3336.57 3022.59 39.13 0 0 -1
-5299.69 6245.72 -8.78888e-12 2.57272e-16 1.71809e-15 1
-257.459 1281.69 45.9081 0 -1 0
-842.202 7003.66 73.6687 0 -1 0
-6175.43 5547.36 39.13 0 0 -1
-841.536 1985.58 234.897 0 0 1
-934.908 1130.39 -1.65889e-12 2.25692e-18 1.23844e-15 1
-6912.54 1478.76 -2.07684e-12 2.25692e-18 1.23844e-15 1
-8113.07 1389.05 29.87 0 0 -1
-4001.91 276.278 -5.94203e-13 2.25692e-18 1.23844e-15 1
456.06 3110.35 70.2696 0 -1 0
-9006.17 6205.49 39.13 0 0 -1
512.147 1247.84 39.13 0 0 -1
-9360.6 335.293 39.13 0 0 -1
-2335.4 645.193 39.13 0 0 -1
-515.896 -74.3877 -1.67791e-13 2.25692e-18 1.23844e-15 1
-4490.23 973.574 39.13 0 0 -1
-7217.04 4261.8 39.13 0 0 -1
-3269.18 6875.8 -1.03938e-11 2.57272e-16 1.71809e-15 1
-8316.15 3741.23 39.13 0 0 -1
-1034.26 3399.64 39.13 0 0 -1
1581.04 1644.01 29.87 0 0 -1
-1397.82 456.928 39.13 0 0 -1
-1396.57 3972.93 39.13 0 0 -1
-8316.97 7206.86 -9.66394e-12 2.57272e-16 1.71809e-15 1
892.385 2524.23 143.527 0 1 0
-1404.91 1364.11 36.8201 0 -1 0
-236.006 5685.35 -9.12885e-12 2.57272e-16 1.71809e-15 1
-7876.16 5126.84 39.13 0 0 -1
-10056.1 2097.15 39.13 0 0 -1
-688.622 2136.11 -3.17301e-12 2.17946e-16 1.59426e-15 1
-5469.9 2930.89 29.87 0 0 -1
1785.05 3391.02 -5.0848e-12 1.5706e-16 2.66299e-15 1
-7413.95 1476.25 -2.07259e-12 2.25692e-18 1.23844e-15 1
-2904.37 6506 204.303 -0.382776 -0.923841 0
-7307.81 7271.01 -1.00338e-11 2.57272e-16 1.71809e-15 1
-7289.68 1694.32 29.87 0 0 -1
-2822.82 3372.16 39.13 0 0 -1
-488.253 4149.31 39.13 0 0 -1
-3245.33 3331.28 -4.52118e-12 2.17946e-16 1.59426e-15 1
-5420.62 4631.76 29.87 0 0 -1
-6246.16 4695.91 319.85 1 0 0
1040.05 1880.85 -3.14281e-12 2.17946e-16 1.59426e-15 1
-9705.22 1154.9 39.13 0 0 -1
1034.88 2822.33 -3.53949e-12 -4.05073e-15 -1.33196e-16 1
-3051.79 5623.65 29.87 0 0 -1
-2053.36 206.871 39.13 0 0 -1
-5483.12 6228.6 29.87 0 0 -1
-820.645 3255.33 -4.92855e-12 2.17946e-16 1.59426e-15 1
-3861.19 2830.79 39.13 0 0 -1
-4124.78 4044.53 39.13 0 0 -1
-658.251 425.659 83.3972 1 0 0
-4970.4 2220.22 39.13 0 0 -1
-7304.48 -256.785 7.34187e-14 2.25692e-18 1.23844e-15 1
-1968.53 909.691 -1.38324e-12 2.25692e-18 1.23844e-15 1
-3792.87 2500.26 39.13 0 0 -1
-8190.42 4817.26 -6.20849e-12 2.25692e-18 1.23844e-15 1
-6175.02 4967.05 39.13 0 0 -1
-2583.53 1626.37 -2.26941e-12 2.25692e-18 1.23844e-15 1
-547.322 6757.98 778.036 0 1 0
-9933.8 1037.81 -1.52393e-12 2.25692e-18 1.23844e-15 1
2597.07 3027.73 121.285 1 0 0
-7098.79 -57.814 39.13 0 0 -1
-10264 5935.37 39.13 0 0 -1
-5882.26 1704.87 -2.35919e-12 2.25692e-18 1.23844e-15 1
-8532.31 547.639 -9.20042e-13 2.25692e-18 1.23844e-15 1
-4082.96 2663.52 -3.55048e-12 2.25692e-18 1.23844e-15 1
1185.41 455.484 -9.02092e-13 2.17946e-16 1.59426e-15 1
-6916.6 1297.75 39.13 0 0 -1
-5337.79 127.468 39.13 0 0 -1
-1326.06 5289.93 156.976 0 1 0
-3079.27 6370.65 -9.57477e-12 2.57272e-16 1.71809e-15 1
1114.42 1570.41 29.87 0 0 -1
-3085.63 3342.55 -4.57396e-12 2.17946e-16 1.59426e-15 1
-8527.59 -195.749 39.13 0 0 -1
-10337.8 4308.56 39.13 0 0 -1
-4258.06 1183.57 -1.71725e-12 2.25692e-18 1.23844e-15 1
-477.282 2533.54 120.796 0 -1 0
-3325.83 5049.28 39.13 0 0 -1
-757.706 5618.97 576.25 0 0 -1
-1457.48 6223.14 203.395 1 0 0
-6246.16 2802.87 451.57 1 0 0
-1066.71 5463.78 39.13 0 0 -1
-5898.34 926.626 -1.39534e-12 2.25692e-18 1.23844e-15 1
-5839.55 6937.91 -9.83922e-12 2.57272e-16 1.71809e-15 1
-2877.15 6196 39.13 0 0 -1
110.466 5695.57 -9.23554e-12 2.57272e-16 1.71809e-15 1
-10158 629.984 -1.01835e-12 2.25692e-18 1.23844e-15 1
-3140.61 968.038 452.37 0 0 -1
-8728.61 2455.39 39.13 0 0 -1
1537.65 375.146 29.87 0 0 -1
-9464.44 3957.08 39.13 0 0 -1
1477.12 -44.1008 39.13 0 0 -1
-6024.67 4065.21 39.13 0 0 -1
-7173.73 1296.44 39.13 0 0 -1
-9070.05 4009.46 -5.20609e-12 2.25692e-18 1.23844e-15 1
-3526.3 5471.82 -7.91549e-12 2.57272e-16 1.71809e-15 1
-2478.86 7216.04 543.687 -1 0 0
2570.2 1776.11 29.87 0 0 -1
-9056.56 1427.66 29.87 0 0 -1
-10532 6189.37 20.7556 1 0 0
-1398.14 3309.85 -4.88961e-12 2.17946e-16 1.59426e-15 1
1432.28 2722.38 -3.24879e-12 1.5706e-16 2.66299e-15 1
-7821.01 3325.31 -4.36163e-12 2.25692e-18 1.23844e-15 1
-7340.18 5620.83 39.13 0 0 -1
-8861.82 6045.65 39.13 0 0 -1
-1777.19 362.796 409.388 0 1 0
-7.66708 615.622 29.87 0 0 -1
-3285.83 1047.85 -1.55136e-12 2.25692e-18 1.23844e-15 1
-5999.78 -261.865 21.9091 0 1 0
2160.61 3121.78 375.317 0 1 0
1192.28 597.328 -1.12972e-12 2.17946e-16 1.59426e-15 1
-437.345 6237.56 97.5588 0 -1 0
-6162.38 4493.44 -5.81204e-12 2.25692e-18 1.23844e-15 1
-7663.94 248.002 -5.5092e-13 2.25692e-18 1.23844e-15 1
-239.927 720.579 39.13 0 0 -1
-2908.11 915.317 39.13 0 0 -1
-8739.87 4140.71 39.13 0 0 -1
-3432.95 3199.96 39.13 0 0 -1
-8307.9 6946.49 -9.21893e-12 2.57272e-16 1.71809e-15 1
-998.671 4374.69 624.398 0 -0.48123 -0.876594
1910.2 1949.96 40.43 0 0 -1
-9343.4 1788.7 29.87 0 0 -1
-10281.2 1927.32 -2.62475e-12 2.25692e-18 1.23844e-15 1
-5904.86 7198.54 -1.02702e-11 2.57272e-16 1.71809e-15 1
1917.49 2834.26 40.43 0 0 -1
-6397.59 4749.75 -6.12893e-12 2.25692e-18 1.23844e-15 1
240.308 808.519 -1.26293e-12 2.25692e-18 1.23844e-15 1
-8231.56 3563.19 -4.6553e-12 2.25692e-18 1.23844e-15 1
-10531.2 4514.73 39.13 0 0 -1
2733.96 2846.79 40.43 0 0 -1
-10127.6 3567.89 39.13 0 0 -1
-10462.3 4745.83 39.13 0 0 -1
-3427.97 6396.73 309.131 -0.960454 0.278439 0
-6880.64 7063.32 39.13 0 0 -1
-678.276 5626.22 667.326 0.512157 0 0.858892
-460.82 4144.14 389.966 -1 0 0
-7806.1 5178.05 39.13 0 0 -1
-6280.25 3484.61 39.13 0 0 -1
-4797.92 2117.31 -2.87242e-12 2.25692e-18 1.23844e-15 1
-3938.62 4128.08 -5.64039e-12 2.17946e-16 1.59426e-15 1
-3934.38 6059.46 68.13 0 0 -1
-206.455 746.736 39.13 0 0 -1
-297.73 3494.17 -5.42329e-12 2.17946e-16 1.59426e-15 1
300.559 3361.73 -5.34254e-12 2.17946e-16 1.59426e-15 1
-6639.45 4296.45 39.13 0 0 -1
-3710.87 3608.97 39.13 0 0 -1
-2541.41 5056.34 455.33 0 0 1
-7335.51 4239.41 39.13 0 0 -1
-6404.14 3570.04 -4.66792e-12 2.25692e-18 1.23844e-15 1
-6480.07 2289.01 39.13 0 0 -1
-346.185 6972.73 39.13 0 0 -1
-6246.16 4003 315.291 1 0 0
-9983.9 411.312 39.13 0 0 -1
-783.85 3808.03 247.982 -1 0 0
262.244 5110.94 29.87 0 0 -1
-8710.36 5900.11 39.13 0 0 -1
-7100.38 5831.35 39.13 0 0 -1
-7376.04 1643.09 29.87 0 0 -1
-1297.63 4634.51 485.16 0 0 -1
1038.93 1777.09 29.87 0 0 -1
-7981.12 3291.4 -4.31928e-12 2.25692e-18 1.23844e-15 1
-10374.6 4668.64 39.13 0 0 -1
-2771.29 2624.61 39.13 0 0 -1
-9860.52 1107.52 39.13 0 0 -1
-586.578 2428.35 -3.66114e-12 2.17946e-16 1.59426e-15 1
-3445.76 5539.51 29.87 0 0 -1
1055.74 3521.08 29.87 0 0 -1
-4425.81 4454.14 -6.05403e-12 2.17946e-16 1.59426e-15 1
1367.94 -239.008 3.18297e-14 2.25692e-18 1.23844e-15 1
609.668 3189.53 40.43 0 0 -1
-3665.8 1043.52 331.249 0 -1 0
-10451.8 276.927 39.13 0 0 -1
1400.82 2768.5 40.43 0 0 -1
-3755.06 282.222 39.13 0 0 -1
-6098.09 3246.41 39.13 0 0 -1
-1722.68 2902.74 29.87 0 0 -1
1257.86 1768.31 29.87 0 0 -1
2311.03 2926.91 -3.93147e-12 1.5706e-16 2.66299e-15 1
-10507.7 6549.76 39.13 0 0 -1
246.017 231.679 -5.48556e-13 2.25692e-18 1.23844e-15 1
-3528.39 1344.71 39.13 0 0 -1
2605.09 1993.52 40.43 0 0 -1
-1732.27 231.271 -5.43586e-13 2.25692e-18 1.23844e-15 1
-3938.07 4444.17 -6.14444e-12 2.17946e-16 1.59426e-15 1
1443.4 2717.35 -3.23715e-12 1.5706e-16 2.66299e-15 1
-9850.99 1950.54 29.87 0 0 -1
-2774.69 4054.4 -5.77659e-12 2.17946e-16 1.59426e-15 1
-5544.45 2925.35 29.87 0 0 -1
-160.419 5399.69 -8.65752e-12 2.57272e-16 1.71809e-15 1
-3574.25 2365.94 39.13 0 0 -1
-903.788 701.03 39.13 0 0 -1
-8146.25 5907.96 -7.56094e-12 2.17946e-16 1.59426e-15 1
-6038.16 3665.4 -4.78684e-12 2.25692e-18 1.23844e-15 1
-2421.52 2303.02 -3.10777e-12 2.25692e-18 1.23844e-15 1
-1209.55 861.019 39.13 0 0 -1
-2929.53 6711.85 703.95 0 0 -1
-8254.1 3547.83 -4.63623e-12 2.25692e-18 1.23844e-15 1
-8837.24 2192.79 39.13 0 0 -1
1554.28 1725.14 29.87 0 0 -1
-10018.5 6099.46 39.13 0 0 -1
-937.856 4928.92 -7.64868e-12 2.57272e-16 1.71809e-15 1
-6766.69 3650.48 39.13 0 0 -1
-3023.46 4856.23 39.13 0 0 -1
-2247.21 3398.72 -4.84624e-12 2.17946e-16 1.59426e-15 1
-9738.85 585.409 -9.64095e-13 2.25692e-18 1.23844e-15 1
640.758 919.089 -1.52249e-12 2.17946e-16 1.59426e-15 1
-9732.5 771.118 -1.1941e-12 2.25692e-18 1.23844e-15 1
-5160.12 928.16 -1.39891e-12 2.25692e-18 1.23844e-15 1
-759.77 4576.32 39.13 0 0 -1
730.071 1031.64 39.13 0 0 -1
-570.912 2831.57 -4.30739e-12 2.17946e-16 1.59426e-15 1
-1265.29 4654.97 -7.09376e-12 2.57272e-16 1.71809e-15 1
-3402.2 6901.19 -1.04032e-11 2.57272e-16 1.71809e-15 1
-4536.19 6504.63 114.611 0 1 0
-5827.79 4305.99 39.13 0 0 -1
-1289.57 6873.14 -1.08985e-11 2.57272e-16 1.71809e-15 1
-609.924 6166.26 836.944 0 1 0
-4620.58 5536.96 -7.74587e-12 2.57272e-16 1.71809e-15 1
-7555.03 632.696 39.13 0 0 -1
-9245.08 4386.27 39.13 0 0 -1
-5443.5 5746.27 29.87 0 0 -1
-866.895 2546.67 39.13 0 0 -1
763.227 1145.3 340.222 0 0 1
-1930 2954.82 29.87 0 0 -1
-10029 989.331 -1.46367e-12 2.25692e-18 1.23844e-15 1
-2297.67 2766.25 29.87 0 0 -1
-2101.24 3280.72 29.87 0 0 -1
-3990.79 -157.916 39.13 0 0 -1
-8507.86 3260.13 -4.27935e-12 2.25692e-18 1.23844e-15 1
-743.711 -104.948 283.89 0 0 -1
1908.76 1738.91 -7.04668e-13 1.5706e-16 2.66299e-15 1
-3378.39 7077.2 668.56 0 0 -1
-4616.84 1999.87 39.13 0 0 -1
-331.645 5147.8 -8.18069e-12 2.57272e-16 1.71809e-15 1
-8802.62 2928.35 39.13 0 0 -1
-10073.4 -29.7921 -2.0145e-13 2.25692e-18 1.23844e-15 1
-9170 -184.192 39.13 0 0 -1
-689.651 7003.66 525.608 0 -1 0
-4188.11 4028.82 -5.42777e-12 2.17946e-16 1.59426e-15 1
824.135 242.735 39.13 0 0 -1
-3230.26 362.796 103.821 0 1 0
-2036.9 1933.36 -2.65083e-12 2.25692e-18 1.23844e-15 1
-9981.93 5144.86 -6.61016e-12 2.25692e-18 1.23844e-15 1
-6602.65 7231.8 -1.01478e-11 2.57272e-16 1.71809e-15 1
-9559.08 2203 39.13 0 0 -1
-2919.98 5931.36 39.13 0 0 -1
-8895.09 4659.13 39.13 0 0 -1
-2226.88 3656.89 29.87 0 0 -1
1858.45 2510.64 -2.75189e-12 1.5706e-16 2.66299e-15 1
-5930.71 2955.69 550.64 0 0 -1
-10231.4 2288.32 39.13 0 0 -1
-4071.81 6917.44 677.48 0 0 -1
-145.68 349.272 -6.93304e-13 2.25692e-18 1.23844e-15 1
-822.807 542.909 39.13 0 0 -1
-2393 891.915 689.6 0 0 -1
-7902.95 6967.14 39.13 0 0 -1
-2977.86 2229.67 39.13 0 0 -1
1144.49 2298.89 213.893 0 1 0
-6887.28 6689.28 -9.1425e-12 2.57272e-16 1.71809e-15 1
482.628 30.5658 29.87 0 0 -1
-5780.25 4188.34 277.1 -1 0 0
-8879.1 -61.7092 -1.64618e-13 2.25692e-18 1.23844e-15 1
980.105 925.271 407.62 0 0 -1
-4556.16 3069.75 39.13 0 0 -1
-780.263 6442.56 710.071 0.294297 0 0.955714
-1449.77 6299.82 582.2 -0.610888 0 0.791717
-1069.08 5314.17 576.25 0 0 -1
-4759.12 464.969 39.13 0 0 -1
-8422.46 1156.06 -1.67378e-12 2.25692e-18 1.23844e-15 1
-5868.61 1947.95 -2.66026e-12 2.25692e-18 1.23844e-15 1
-8627.49 4716.82 39.13 0 0 -1
-3700.68 674.99 452.37 0 0 -1
-6020.04 61.8171 -3.2405e-13 2.25692e-18 1.23844e-15 1
-7402.15 5566.43 39.13 0 0 -1
-4763.12 4038.29 39.13 0 0 -1
-6141.15 1642.76 29.87 0 0 -1
-559.795 711.95 75.4772 1 0 0
1128.85 3058.76 402.715 0 -0.449957 -0.89305
-163.405 597.862 63.3666 -1 0 0
-1602.11 2674.82 -3.83276e-12 2.17946e-16 1.59426e-15 1
-3758.47 187.338 39.13 0 0 -1
-714.864 452.025 -8.19273e-13 2.25692e-18 1.23844e-15 1
-8819.63 4204.91 -5.4487e-12 2.25692e-18 1.23844e-15 1
-2435 1855.66 39.13 0 0 -1
-5477.07 1252.99 39.13 0 0 -1
-5942.01 4023.91 39.13 0 0 -1
-9357.85 3894.57 39.13 0 0 -1
-8825.33 4009.98 39.13 0 0 -1
-9545.39 1648.71 -2.28136e-12 2.25692e-18 1.23844e-15 1
-10363.6 3384.17 -4.42878e-12 2.25692e-18 1.23844e-15 1
-3281.85 7349.69 512.449 0 -1 0
-1802.08 3010.31 29.87 0 0 -1
-2351.14 2162.07 -2.93337e-12 2.25692e-18 1.23844e-15 1
-6637.3 -42.9613 39.13 0 0 -1
756.856 174.035 39.13 0 0 -1
469.629 1196.53 89.8555 0.991445 0.130528 0
-2516.66 4267.62 39.13 0 0 -1
-940.07 5855.64 -9.24029e-12 2.57272e-16 1.71809e-15 1
-6727.62 3754.19 -4.89524e-12 2.25692e-18 1.23844e-15 1
-6246.16 4243.55 124.487 1 0 0
-4355.8 1108 -1.62344e-12 2.25692e-18 1.23844e-15 1
-4635.66 5342.19 -7.42407e-12 2.17946e-16 1.59426e-15 1
-5974.91 4326.52 39.13 0 0 -1
-5780.25 3593.55 527.729 -1 0 0
-10340.5 238.784 -5.33462e-13 2.25692e-18 1.23844e-15 1
-3752.61 6904.41 677.48 0 0 -1
-6384.93 -27.6448 39.13 0 0 -1
933.654 1117.56 433.812 0 -0.887631 -0.460556
445.811 2708.44 -4.33268e-12 2.17946e-16 1.59426e-15 1
-2844.28 6269.88 39.13 0 0 -1
-3518.93 6451.01 323.468 0.692562 -0.721358 0
-4883.05 7051.12 668.56 0 0 -1
-6354.48 3159.64 39.13 0 0 -1
1954.98 2822.32 -3.59703e-12 1.5706e-16 2.66299e-15 1
1666.99 3532.72 -5.4436e-12 1.5706e-16 2.66299e-15 1
-6531.72 6418.73 39.13 0 0 -1
-9322.79 5974.93 -7.63964e-12 2.25692e-18 1.23844e-15 1
-2679.22 6275.54 39.13 0 0 -1
-1680.07 1718.2 -2.38517e-12 2.25692e-18 1.23844e-15 1
-6534.54 5424.57 -7.14156e-12 2.17946e-16 1.59426e-15 1
758.008 225.548 39.13 0 0 -1
-6128.56 5236.33 209.67 0 -1 0
-3182.28 4764.07 39.13 0 0 -1
-8986.72 2187.49 -2.94987e-12 2.25692e-18 1.23844e-15 1
-7973.23 3127.54 39.13 0 0 -1
-6226.01 775.163 39.13 0 0 -1
-544.844 6243.08 336.344 -1 0 0
93.0801 1668.07 29.87 0 0 -1
-332.385 846.241 338.22 0 0 -1
-8685.35 3329.42 39.13 0 0 -1
-1358.65 6157.61 -9.65142e-12 2.57272e-16 1.71809e-15 1
-1432.09 4282.14 381.85 1 0 0
-9773.85 7015.18 -8.97141e-12 2.17946e-16 1.59426e-15 1
-4143.25 6350.82 567.73 0 1 0
-9961.21 6877.69 -8.75621e-12 2.25692e-18 1.23844e-15 1
-6246.16 3530.44 225.274 1 0 0
-6960.14 5355.94 -6.93938e-12 2.17946e-16 1.59426e-15 1
1749.9 3772.57 -6.09533e-12 1.5706e-16 2.66299e-15 1
-3970.76 3503.86 39.13 0 0 -1
-1305.74 4412.2 39.13 0 0 -1
1359.53 831.324 39.13 0 0 -1
-307.105 317.244 -6.53276e-13 2.25692e-18 1.23844e-15 1
-6246.16 4664.72 498.457 1 0 0
-2698.89 2650.55 39.13 0 0 -1
490.786 78.0366 748.89 0 1 0
-8997.2 3182.58 -4.18221e-12 2.25692e-18 1.23844e-15 1
-4402.12 3101.23 39.13 0 0 -1
-983.839 2859.53 39.13 0 0 -1
-8951.7 4187.65 39.13 0 0 -1
-1021.28 6651.82 -1.05873e-11 2.57272e-16 1.71809e-15 1
-641.924 7003.66 189.02 0 -1 0
-6690.23 1119.82 39.13 0 0 -1
-9772.44 2716.65 -3.60343e-12 2.25692e-18 1.23844e-15 1
-4556.35 393.408 -7.38009e-13 2.25692e-18 1.23844e-15 1
-1991.07 3919.16 29.87 0 0 -1
-3511.15 7349.69 305.471 0 -1 0
-888.661 3908.66 1009.32 -1 0 0
-5673.14 2027.51 -2.75923e-12 2.25692e-18 1.23844e-15 1
-1916.92 6483.94 -1.00684e-11 2.57272e-16 1.71809e-15 1
-1832.02 2564.27 -3.60639e-12 2.17946e-16 1.59426e-15 1
-1037.39 1743.33 -2.47079e-12 2.17946e-16 1.59426e-15 1
-7585.85 644.183 39.13 0 0 -1
-5416.92 1982.47 -2.70403e-12 2.25692e-18 1.23844e-15 1
-1896.94 135.543 39.13 0 0 -1
-5569.25 4335.92 -5.61829e-12 2.25692e-18 1.23844e-15 1
-989.476 725.419 39.13 0 0 -1
1162.01 2412.23 258.808 -0.448299 0 -0.893884
-8250.7 5275.05 39.13 0 0 -1
-8425.1 5897.53 -7.54581e-12 2.25692e-18 1.23844e-15 1
-8019.42 4893.3 -6.30305e-12 2.25692e-18 1.23844e-15 1
874.001 2941.71 461.687 0 -0.449957 -0.89305
207.757 126.5 -4.18212e-13 2.25692e-18 1.23844e-15 1
-9576.51 3235.06 -4.2459e-12 2.25692e-18 1.23844e-15 1
327.95 5675.19 29.87 0 0 -1
-3812.47 4553.54 -6.34618e-12 2.17946e-16 1.59426e-15 1
-7600.82 5182.7 39.13 0 0 -1
-3598.53 5283.92 -7.57408e-12 2.57272e-16 1.71809e-15 1
-6013.31 3267.01 39.13 0 0 -1
-1417.13 5335.81 39.13 0 0 -1
-617.542 356.538 111.154 0 -1 0
552.118 -112.36 -1.23175e-13 2.25692e-18 1.23844e-15 1
-8390.28 2610.72 -3.47537e-12 2.25692e-18 1.23844e-15 1
1063.53 3110.35 320.855 0 -1 0
-1662.38 3859.87 39.13 0 0 -1
-8968.91 4109.25 39.13 0 0 -1
-9668.54 512.713 -8.74224e-13 2.25692e-18 1.23844e-15 1
-841.854 3857.26 70.1275 0 -1 0
1103.15 595.566 39.13 0 0 -1
-3251.84 553.509 452.37 0 0 -1
-9094.95 5780.12 -7.39889e-12 2.25692e-18 1.23844e-15 1
-9274.68 250.271 -5.50094e-13 2.25692e-18 1.23844e-15 1
-642.838 5862.57 39.13 0 0 -1
1010.44 3453.93 -5.13066e-12 1.5706e-16 2.66299e-15 1
536.378 365.565 29.87 0 0 -1
-8293.91 3738.13 39.13 0 0 -1
1200.36 2862.45 39.13 0 0 -1
-9673.88 951.864 -1.41807e-12 2.25692e-18 1.23844e-15 1
-3612.58 3510.3 -4.72654e-12 2.17946e-16 1.59426e-15 1
-523.118 1986.53 231.828 0 1 0
-5929.92 3053.25 -4.02896e-12 2.25692e-18 1.23844e-15 1
-10452.7 23.4126 -2.66484e-13 2.25692e-18 1.23844e-15 1
-5082.49 4721.69 -6.33745e-12 2.17946e-16 1.59426e-15 1
-3170.53 2024.16 -2.76073e-12 2.25692e-18 1.23844e-15 1
-10037.3 45.7812 -2.95124e-13 2.25692e-18 1.23844e-15 1
-1253.96 -224.477 39.13 0 0 -1
-8194.63 2399.56 39.13 0 0 -1
-8428.01 2794.44 -3.70281e-12 2.25692e-18 1.23844e-15 1
-3315.54 3101.31 -4.13925e-12 2.17946e-16 1.59426e-15 1
-2478.86 6640.15 237.878 -1 0 0
-6459.61 144.417 39.13 0 0 -1
-7671.97 5206.05 39.13 0 0 -1
-5971.96 2858.9 39.13 0 0 -1
2627.52 2938.66 46.6615 0 1 0
842.701 1238.08 29.87 0 0 -1
-707.568 -53.4918 -1.93237e-13 2.25692e-18 1.23844e-15 1
-5984.49 576.925 -9.62061e-13 2.25692e-18 1.23844e-15 1
-6152.52 475.625 39.13 0 0 -1
-8815.77 2093.86 39.13 0 0 -1
2350.39 2969.44 482.248 0 0.417179 0.908824
-396.613 4667.12 39.13 0 0 -1
-2676.31 4001.68 39.13 0 0 -1
-8058.88 6938.57 39.13 0 0 -1
-1416.2 4124.91 701.438 1 0 0
-5087.86 5213.73 -7.12072e-12 2.17946e-16 1.59426e-15 1
80.3944 2602.8 29.87 0 0 -1
-8837.98 7094.59 39.13 0 0 -1
-1805.87 3333.56 29.87 0 0 -1
-6372.77 5217.94 -6.84739e-12 2.17946e-16 1.59426e-15 1
-11.0781 1507.79 -2.31896e-12 2.17946e-16 1.59426e-15 1
-2854.41 5566.27 -8.25061e-12 2.57272e-16 1.71809e-15 1
-5896.36 1561.51 29.87 0 0 -1
196.824 4233.38 29.87 0 0 -1
433.722 91.5303 61.751 0.92388 -0.382683 0
-2166.18 2371.78 -3.2267e-12 2.17946e-16 1.59426e-15 1
-8513.84 6739.2 39.13 0 0 -1
1477.26 2084.4 39.13 0 0 -1
-224.052 3325.84 39.13 0 0 -1
1303.38 2937.94 40.43 0 0 -1
787.314 2566.44 -4.18074e-12 2.17946e-16 1.59426e-15 1
-7372.64 1578.19 -2.19893e-12 2.25692e-18 1.23844e-15 1
-3288.35 6210.14 106.065 -1 0 0
-257.029 577.366 -9.75534e-13 2.25692e-18 1.23844e-15 1
-1457.48 6623.12 544.885 1 0 0
-6530.46 4195.05 -5.44167e-12 2.25692e-18 1.23844e-15 1
-9097.37 5267.27 39.13 0 0 -1
-7771.14 2397.98 39.13 0 0 -1
-964.793 6752.54 745.034 0.0597089 0 0.998216
-8183.55 2483.1 39.13 0 0 -1
-7625.38 904.668 39.13 0 0 -1
-5780.25 2878.47 310.046 -1 0 0
1345.44 3413.49 -5.07559e-12 1.5706e-16 2.66299e-15 1
-2939.58 2935.21 -3.95639e-12 2.17946e-16 1.59426e-15 1
-5908.52 1044.36 -1.54112e-12 2.25692e-18 1.23844e-15 1
-9416.37 528.49 -8.94332e-13 2.25692e-18 1.23844e-15 1
1737.48 1961.24 40.43 0 0 -1
-7860.43 164.739 39.13 0 0 -1
-4720.17 473.773 39.13 0 0 -1
-3189.33 5126.03 -7.40809e-12 2.57272e-16 1.71809e-15 1
-2420.02 5961.38 -9.04121e-12 2.57272e-16 1.71809e-15 1
1928.33 1574.69 -2.70415e-13 1.5706e-16 2.66299e-15 1
-5878.39 2133.62 550.64 0 0 -1
-959.467 1331.76 -1.90822e-12 2.25692e-18 1.23844e-15 1
-5875.79 5135.16 39.13 0 0 -1
-800.405 2495.39 317.18 0 0 -1
-9796.03 3111.29 -4.09212e-12 2.25692e-18 1.23844e-15 1
-9293.6 4998.34 39.13 0 0 -1
-7898.18 602.891 39.13 0 0 -1
-11.1494 3249.01 -5.0949e-12 2.17946e-16 1.59426e-15 1
-6018.7 7265.01 39.13 0 0 -1
-9805.75 1231.07 -1.76356e-12 2.25692e-18 1.23844e-15 1
-4891.18 1715.46 -2.37453e-12 2.25692e-18 1.23844e-15 1
-4392.02 5460.77 29.87 0 0 -1
-4930.76 -113.865 39.13 0 0 -1
-2454.58 3091.41 -4.31111e-12 2.17946e-16 1.59426e-15 1
-166.832 6969.46 -1.13529e-11 2.57272e-16 1.71809e-15 1
-1070.8 4721.44 -7.25801e-12 2.57272e-16 1.71809e-15 1
-8356.05 757.128 39.13 0 0 -1
-3123.22 3250.25 39.13 0 0 -1
-1862.74 6952.94 29.87 0 0 -1
-1218.31 6876.2 576.25 0 0 -1
-2566.97 2732.66 39.13 0 0 -1
-3497.95 5364.23 -7.73794e-12 2.57272e-16 1.71809e-15 1
-1218.13 3019.32 -4.46567e-12 2.17946e-16 1.59426e-15 1
-3336.9 6835.41 703.95 0 0 -1
-4754.07 5770.23 29.87 0 0 -1
-1194.01 1278.08 -1.84121e-12 2.25692e-18 1.23844e-15 1
-8724.26 1874.72 29.87 0 0 -1
-6889.61 5705.51 -7.51206e-12 2.17946e-16 1.59426e-15 1
-2303.66 397.054 481.426 -1 0 0
-886.65 3889.43 132.736 -1 0 0
-5722.24 4330.58 -5.61134e-12 2.25692e-18 1.23844e-15 1
-7548.17 4722.78 39.13 0 0 -1
-4211.55 6440.15 120.175 1 0 0
2812.38 2773.34 24.6988 -1 0 0
-3390.36 1895.13 39.13 0 0 -1
824.592 2524.23 113.919 0 1 0
-2908.8 411.455 -7.64078e-13 2.25692e-18 1.23844e-15 1
-850.85 3520.92 485.16 0 0 -1
-9203.67 158.405 -4.36484e-13 2.25692e-18 1.23844e-15 1
2109.42 1846.12 -1.02169e-12 1.5706e-16 2.66299e-15 1
1111.56 1331.89 -2.28321e-12 2.17946e-16 1.59426e-15 1
-3255.47 3841.81 -5.33289e-12 2.17946e-16 1.59426e-15 1
-963.732 2123.59 -3.09309e-12 2.17946e-16 1.59426e-15 1
-7695.86 4069.36 -5.28338e-12 2.25692e-18 1.23844e-15 1
-9521.09 435.887 -7.79412e-13 2.25692e-18 1.23844e-15 1
2097.87 2662.04 187.965 -1 0 0
-3286.61 6745.75 -1.01659e-11 2.57272e-16 1.71809e-15 1
-8280.35 -10.1789 -2.29786e-13 2.25692e-18 1.23844e-15 1
314.337 4299.09 29.87 0 0 -1
-6147.32 2026.91 249.768 0 1 0
-9863.48 2525.62 39.13 0 0 -1
-6014.23 3660.39 39.13 0 0 -1
-1527.07 5011.51 39.13 0 0 -1
-4211.55 6410.7 564.931 1 0 0
-637.582 5935.22 -9.45483e-12 2.57272e-16 1.71809e-15 1
1162.27 1170.24 -2.03655e-12 2.17946e-16 1.59426e-15 1
-5745.73 6661.89 39.13 0 0 -1
-9181.13 5444.37 39.13 0 0 -1
-4007.95 1014.32 389.104 1 0 0
12.3354 5060.12 29.87 0 0 -1
-286.798 2199.39 -3.36147e-12 2.17946e-16 1.59426e-15 1
-3551.69 5224.63 -7.48426e-12 2.57272e-16 1.71809e-15 1
-10316.4 3368.4 -4.40936e-12 2.25692e-18 1.23844e-15 1
-453.504 3876.23 -5.99844e-12 2.17946e-16 1.59426e-15 1
-8931.7 5597.16 -7.17267e-12 2.25692e-18 1.23844e-15 1
-2061.55 111.479 39.13 0 0 -1
-3846.6 1706.03 29.87 0 0 -1
-366.591 427.054 327.596 0 0 1
-6160.33 69.7769 39.13 0 0 -1
1339.08 2939.69 -3.81285e-12 1.5706e-16 2.66299e-15 1
-10532 6375.64 29.7047 1 0 0
-7961.56 2966.83 39.13 0 0 -1
-2724.55 362.796 323.673 0 1 0
-5708.98 7345.77 39.13 0 0 -1
388.909 358.156 29.87 0 0 -1
-4712.44 3234.57 39.13 0 0 -1
721.133 884.199 39.13 0 0 -1
-8422.21 5962.22 39.13 0 0 -1
-2880.94 -224.512 39.13 0 0 -1
-7016.49 1747 -2.40881e-12 2.25692e-18 1.23844e-15 1
2189.32 2642.28 404.733 0 -0.652057 0.75817
-4280.73 4143.72 39.13 0 0 -1
-888.661 3664.45 789.137 -1 0 0
-1510.21 932.284 -1.41225e-12 2.25692e-18 1.23844e-15 1
-1614.33 911.594 430.12 0 0 -1
-3358.08 102.43 -3.80355e-13 2.25692e-18 1.23844e-15 1
-6884.33 3795.41 39.13 0 0 -1
-9165.28 1803.21 29.87 0 0 -1
-806.181 1573.22 29.87 0 0 -1
1228.95 2846.95 509.435 0 -0.449957 -0.89305
-6246.16 4205.06 384.01 1 0 0
-5767.76 3952.85 39.13 0 0 -1
-918.096 2707.34 -4.03368e-12 2.17946e-16 1.59426e-15 1
1217.36 364.473 39.13 0 0 -1
-1416.2 3920.12 1018.31 1 0 0
-107.141 6107.62 39.13 0 0 -1
-39.4473 1565.31 -2.40449e-12 2.17946e-16 1.59426e-15 1
-3904.34 6513.46 387.649 0 1 0
-674.17 1014.51 39.13 0 0 -1
-1528.1 2593.36 39.13 0 0 -1
653.989 1164.5 340.222 0 0 1
-7156.18 2354.16 -3.16042e-12 2.25692e-18 1.23844e-15 1
1103.72 238.105 105.813 0 1 0
-1607.88 1576.92 -2.21037e-12 2.25692e-18 1.23844e-15 1
226.078 445.414 -8.1321e-13 2.25692e-18 1.23844e-15 1
-3680.09 6101.53 -8.95781e-12 2.57272e-16 1.71809e-15 1
-3776.46 802.861 39.13 0 0 -1
-3457.6 6463.88 211.745 -0.278443 -0.960453 0
-1416.25 3526.45 485.16 0 0 -1
-5909.29 5664.43 -7.66023e-12 2.17946e-16 1.59426e-15 1
1513.74 581.497 29.87 0 0 -1
767.937 3859.13 29.87 0 0 -1
837.223 613.545 39.13 0 0 -1
-5780.25 3168.91 267.107 -1 0 0
-4007.95 505.914 93.9989 1 0 0
-8015.02 6409.28 39.13 0 0 -1
-363.8 4687.92 39.13 0 0 -1
-9367.08 5837.37 -7.46918e-12 2.25692e-18 1.23844e-15 1
-7034.2 2999.07 39.13 0 0 -1
-6258.73 3606.16 -4.71297e-12 2.25692e-18 1.23844e-15 1
-9342.49 937.843 39.13 0 0 -1
-10049.7 31.0005 39.13 0 0 -1
-1552.74 3626.24 39.13 0 0 -1
-2551.08 2366.27 39.13 0 0 -1
-2593.22 1134.83 96.9272 0 -1 0
-4514.79 1565.24 -2.18935e-12 2.25692e-18 1.23844e-15 1
-7639.73 5937.79 -7.71889e-12 2.17946e-16 1.59426e-15 1
-4956.46 704.406 -1.12226e-12 2.25692e-18 1.23844e-15 1
-9803.5 297.722 39.13 0 0 -1
-9679.65 108.808 39.13 0 0 -1
-9459.24 3063.2 -4.03333e-12 2.25692e-18 1.23844e-15 1
-6307.9 221.171 -5.20751e-13 2.25692e-18 1.23844e-15 1
-1836.63 4650.67 29.87 0 0 -1
-3003.52 4977.07 39.13 0 0 -1
-3445.82 705.548 452.37 0 0 -1
1790.11 401.358 61.9286 1 0 0
-440.908 2501 -3.80872e-12 2.17946e-16 1.59426e-15 1
-7878.63 2529.68 -3.37616e-12 2.25692e-18 1.23844e-15 1
-933.021 5588.25 743.134 0.0597089 0 0.998216
-2178.95 5804.67 -8.83399e-12 2.57272e-16 1.71809e-15 1
67.7713 5514.97 29.87 0 0 -1
-783.194 7101.79 -1.14216e-11 2.57272e-16 1.71809e-15 1
-2478.86 6598.63 508.94 -1 0 0
-8797.51 6762.85 39.13 0 0 -1
-780.975 5906.42 -9.36847e-12 2.57272e-16 1.71809e-15 1
-3873.51 2179.98 39.13 0 0 -1
1413.11 1101.84 247.026 -1 0 0
-5233.15 5004.27 29.87 0 0 -1
612.292 3404.25 -5.17379e-12 -4.05073e-15 -1.33196e-16 1
-1343.9 6504.7 -1.02515e-11 2.57272e-16 1.71809e-15 1
-2278 1272.1 39.13 0 0 -1
-2258.1 2013.58 -2.74969e-12 2.25692e-18 1.23844e-15 1
-238.373 2564.09 39.13 0 0 -1
-9548.44 7273.45 39.13 0 0 -1
-6005.4 3566.22 39.13 0 0 -1
139.479 3650.72 29.87 0 0 -1
-9243.3 3232.85 39.13 0 0 -1
638.732 2980.26 39.13 0 0 -1
-7544.99 3557.56 -4.64988e-12 2.25692e-18 1.23844e-15 1
2178.02 3651.09 29.87 0 0 -1
-638.14 5046.95 39.13 0 0 -1
-4148.1 3598.39 39.13 0 0 -1
-5923.16 4779.5 550.64 0 0 -1
-9099.38 2831.02 39.13 0 0 -1
-59.1629 6751.72 39.13 0 0 -1
731.185 1564.94 29.87 0 0 -1
-2195.61 3989.75 -5.79975e-12 2.17946e-16 1.59426e-15 1
-1985.65 42.9956 39.13 0 0 -1
-5155.71 426.533 39.13 0 0 -1
-10001.1 7055.61 39.13 0 0 -1
-1154.82 6835.36 39.13 0 0 -1
-9782.76 2990.38 39.13 0 0 -1
-888.661 4763.52 254.801 -1 0 0
-7663.04 1364.11 37.0875 0 -1 0
-4645.38 534.567 -9.12626e-13 2.25692e-18 1.23844e-15 1
-7201.74 4096.14 -5.31766e-12 2.25692e-18 1.23844e-15 1
-5712.69 1212.04 -1.74923e-12 2.25692e-18 1.23844e-15 1
-6512.66 1470.31 -2.06728e-12 2.25692e-18 1.23844e-15 1
-2036.22 -261.865 12.0999 0 1 0
-7253.53 1421.83 29.87 0 0 -1
156.77 3962.67 29.87 0 0 -1
-9518.07 3647.18 39.13 0 0 -1
-528.044 3303.62 -5.06931e-12 2.17946e-16 1.59426e-15 1
-4791.89 6556.29 621.75 0 0 -1
-3152.76 4299.02 39.13 0 0 -1
-5560.39 565.14 -9.48423e-13 2.25692e-18 1.23844e-15 1
-628.233 6582.43 -1.05692e-11 2.57272e-16 1.71809e-15 1
-874.048 1838.59 -2.65827e-12 2.17946e-16 1.59426e-15 1
1783.71 1423.17 29.87 0 0 -1
-7960.84 7154.28 39.13 0 0 -1
-2598.75 7049.18 -1.08642e-11 2.57272e-16 1.71809e-15 1
-3830.93 2693.63 -3.58834e-12 2.25692e-18 1.23844e-15 1
-1030.76 4926.64 189.965 0 -1 0
-2034.91 5009.21 -7.50439e-12 2.57272e-16 1.71809e-15 1
-1936.56 7015.46 -1.09766e-11 2.57272e-16 1.71809e-15 1
1413.11 805.082 339.382 -1 0 0
-5301.79 2749.03 -3.65362e-12 2.25692e-18 1.23844e-15 1
-5081.89 116.512 -3.93905e-13 2.25692e-18 1.23844e-15 1
-5277.94 1775.16 29.87 0 0 -1
-855.845 6446.72 908.23 -0.983981 1.45458e-06 0.178274
-213.247 2842.03 39.13 0 0 -1
1501 1805.08 -1.78687e-12 -4.05073e-15 -1.33196e-16 1
-5450.98 5704.56 -7.82408e-12 2.17946e-16 1.59426e-15 1
856.424 3140.05 -4.27062e-12 1.5706e-16 2.66299e-15 1
-646.971 1016.25 338.22 0 0 -1
1844.21 907.12 118.025 -1 0 0
-8002.64 4707.6 -6.07311e-12 2.25692e-18 1.23844e-15 1
1762.22 209.226 39.13 0 0 -1
-7573.75 835.225 -1.27836e-12 2.25692e-18 1.23844e-15 1
-5694.12 2577.49 39.13 0 0 -1
1464.33 2122.53 40.43 0 0 -1
-388.737 6761.68 682.021 -0.999249 0 0.0387482
-4454.32 6848.77 703.95 0 0 -1
-3233.61 543.198 452.37 0 0 -1
-7884.19 4162.83 39.13 0 0 -1
-3291.98 362.796 216.688 0 1 0
1250.24 3110.35 316.509 0 -1 0
-3679.04 2293.17 39.13 0 0 -1
-10033 6358.04 -8.1125e-12 2.25692e-18 1.23844e-15 1
-8949.72 5002.44 39.13 0 0 -1
-332.325 2427.21 96.8278 -1 0 0
-61.923 291.239 -6.21623e-13 2.25692e-18 1.23844e-15 1
-5182.96 2129.69 29.87 0 0 -1
-4133.31 1985.39 39.13 0 0 -1
-7764.01 1755.18 29.87 0 0 -1
-6844.86 5431.74 39.13 0 0 -1
2235.08 2607.97 112.715 0 -1 0
-8114.83 4129.08 39.13 0 0 -1
-5673.87 680.072 -1.0905e-12 2.25692e-18 1.23844e-15 1
1223.53 64.5242 -3.43751e-13 2.25692e-18 1.23844e-15 1
-5702.29 2124.59 39.13 0 0 -1
-1245.93 3888.59 39.13 0 0 -1
-849.347 4748.91 -7.36217e-12 2.57272e-16 1.71809e-15 1
-2545.26 274.697 -5.95532e-13 2.25692e-18 1.23844e-15 1
-4686.55 309.943 -6.34349e-13 2.25692e-18 1.23844e-15 1
-3012.06 2982.09 -4.01532e-12 2.17946e-16 1.59426e-15 1
-3407.39 4572.18 -6.46417e-12 2.17946e-16 1.59426e-15 1
-10015.7 944.429 39.13 0 0 -1
769.887 867.989 -1.46917e-12 2.17946e-16 1.59426e-15 1
1054.73 490.899 39.13 0 0 -1
-3955.81 3037.08 39.13 0 0 -1
-783.85 4303.81 405.611 -1 0 0
-6149.31 4009.45 550.64 0 0 -1
-2775.63 1134.83 160.386 0 -1 0
-1509.47 5665.78 39.13 0 0 -1
-2369.54 40.6556 39.13 0 0 -1
-783.85 3915.95 443.42 -1 0 0
-6610.69 905.429 -1.36748e-12 2.25692e-18 1.23844e-15 1
-783.85 3226.19 78.1079 -1 0 0
-289.68 693.213 55.5401 -1 0 0
-6421.13 4232.44 39.13 0 0 -1
-4295.88 5236.29 -7.3293e-12 2.17946e-16 1.59426e-15 1
1300.89 639.259 39.13 0 0 -1
-5643.47 7349.69 17.7409 0 -1 0
-529.405 797.485 172.842 0 1 0
-9564.53 724.122 -1.13628e-12 2.25692e-18 1.23844e-15 1
-205.24 1274.82 338.22 0 0 -1
1244.62 2538.79 -2.73043e-12 1.5706e-16 2.66299e-15 1
-390.587 -22.6648 283.89 0 0 -1
-6832.36 4029.09 39.13 0 0 -1
-6584.34 5173.1 -6.72979e-12 2.17946e-16 1.59426e-15 1
-9368.88 6272.12 39.13 0 0 -1
-9034.11 583.383 -9.63176e-13 2.25692e-18 1.23844e-15 1
-4216.52 25.8 -2.83516e-13 2.25692e-18 1.23844e-15 1
-2689.27 6505.51 248.409 0.382776 -0.923841 0
2066.79 2517.32 -2.80239e-12 1.5706e-16 2.66299e-15 1
-3592.74 4686.91 39.13 0 0 -1
-2695.06 1134.83 77.8505 0 -1 0
-8252.05 7273.07 -9.79439e-12 2.57272e-16 1.71809e-15 1
-10008.4 3287.81 -4.31026e-12 2.25692e-18 1.23844e-15 1
-3504.57 6343.59 39.13 0 0 -1
-9400.76 3883.04 -5.04878e-12 2.25692e-18 1.23844e-15 1
-7356.63 3752.38 39.13 0 0 -1
933.739 2901.57 481.911 0 -0.449957 -0.89305
-5243.71 6223.35 29.87 0 0 -1
-2337.29 1942.26 -2.66118e-12 2.25692e-18 1.23844e-15 1
-7870.95 4630.55 -5.97798e-12 2.25692e-18 1.23844e-15 1
-4287.79 5546.4 29.87 0 0 -1
-409.979 5508.39 772.916 0 1 0
-5784.79 2188.4 -2.95823e-12 2.25692e-18 1.23844e-15 1
1738.95 -261.865 23.2499 0 1 0
-1944.64 2839.37 -4.02043e-12 2.17946e-16 1.59426e-15 1
-6253.59 4643.41 -5.99756e-12 2.25692e-18 1.23844e-15 1
-946.797 5942.62 743.958 0.0597089 0 0.998216
-10532 872.972 22.8224 1 0 0
-4536.99 4541.48 39.13 0 0 -1
-6246.16 3718.88 194.921 1 0 0
-10524.2 5052.55 -6.49461e-12 2.25692e-18 1.23844e-15 1
-10015.4 5961.5 -7.62144e-12 2.25692e-18 1.23844e-15 1
-3079.66 125.356 -4.09376e-13 2.25692e-18 1.23844e-15 1
-4700.79 2486.7 39.13 0 0 -1
-1026.32 6318.6 -1.00135e-11 2.57272e-16 1.71809e-15 1
-7031.24 6582.7 -8.92235e-12 2.57272e-16 1.71809e-15 1
-8564.96 2046.68 -2.77645e-12 2.25692e-18 1.23844e-15 1
-412.408 6215.7 959.873 -0.321445 0 -0.946928
-4547.05 6411.49 -9.26731e-12 2.57272e-16 1.71809e-15 1
-8520.3 7275.15 -9.72895e-12 2.57272e-16 1.71809e-15 1
-4345.93 1758.43 29.87 0 0 -1
-3266.8 1043.52 380.033 0 -1 0
-3608.99 6715.35 -1.00307e-11 2.57272e-16 1.71809e-15 1
-10419.2 6444.35 39.13 0 0 -1
2591.53 2648.51 39.1421 0 0 1
-9352.68 619.879 39.13 0 0 -1
-4858.61 4769.23 39.13 0 0 -1
-7986.46 6205.2 39.13 0 0 -1
-4238.67 7005.9 668.56 0 0 -1
-2694.06 5335.59 -7.89554e-12 2.57272e-16 1.71809e-15 1
-2306.59 5477.64 29.87 0 0 -1
-5932.88 4595.91 -5.95159e-12 2.17946e-16 1.59426e-15 1
-4049.02 4644.83 39.13 0 0 -1
-5970.42 5347.35 39.13 0 0 -1
-2110.45 1043.52 310.297 0 -1 0
-10247.7 5511.17 -7.06322e-12 2.25692e-18 1.23844e-15 1
-7202.7 6279.5 39.13 0 0 -1
-9353.71 3756.51 39.13 0 0 -1
-2581.21 1345.66 -1.92177e-12 2.25692e-18 1.23844e-15 1
-8550.16 5633.39 -7.21841e-12 2.25692e-18 1.23844e-15 1
-8973.77 4264.74 39.13 0 0 -1
-8753.38 3487.66 -4.56058e-12 2.25692e-18 1.23844e-15 1
-2417.77 5152.76 37.1417 -1 0 0
-4691.99 1799.57 29.87 0 0 -1
-10221.8 3688.35 39.13 0 0 -1
-317.244 3167.71 -4.89858e-12 2.17946e-16 1.59426e-15 1
-6882.91 7349.69 28.5457 0 -1 0
-6246.16 4710.71 77.4735 1 0 0
-8824.5 4573.52 39.13 0 0 -1
-5262.46 2204.78 29.87 0 0 -1
-3748.16 3074.7 -4.06045e-12 2.25692e-18 1.23844e-15 1
-7458.45 3865.78 -5.03178e-12 2.25692e-18 1.23844e-15 1
-2338.39 1134.83 494.815 0 -1 0
-9797.96 6655.25 -8.48111e-12 2.25692e-18 1.23844e-15 1
-1794.93 1316.49 39.13 0 0 -1
-1654.29 5403.87 -8.28035e-12 2.57272e-16 1.71809e-15 1
-2447.27 2017.05 39.13 0 0 -1
-6933.32 1550.07 29.87 0 0 -1
603.156 1090.14 39.13 0 0 -1
-1247.41 7106.21 39.13 0 0 -1
-6961.96 7100.8 -9.83031e-12 2.57272e-16 1.71809e-15 1
-7088.65 3771.7 39.13 0 0 -1
-63.4784 4128.9 -6.49912e-12 2.57272e-16 1.71809e-15 1
-133.952 6601.26 39.13 0 0 -1
-3109.43 134.694 39.13 0 0 -1
-3441.39 7117.22 -1.07643e-11 2.57272e-16 1.71809e-15 1
-5720.81 1096.63 39.13 0 0 -1
-6522.1 5175.42 39.13 0 0 -1
-7460.41 6589.26 39.13 0 0 -1
282.923 2469 -3.91546e-12 2.17946e-16 1.59426e-15 1
-2678.96 750.851 -1.18492e-12 2.25692e-18 1.23844e-15 1
-7361.63 88.4814 -3.54045e-13 2.25692e-18 1.23844e-15 1
-3703.17 6629.93 -9.85971e-12 2.57272e-16 1.71809e-15 1
-9081.48 373.668 39.13 0 0 -1
1623.69 -168.276 -5.63445e-14 2.25692e-18 1.23844e-15 1
-8300.02 5954.41 39.13 0 0 -1
-8465.5 5020.43 -6.45948e-12 2.25692e-18 1.23844e-15 1
-8973.17 5251.07 39.13 0 0 -1
-6244.64 5236.33 494.277 0 -1 0
-9760.08 1250.46 -1.78767e-12 2.25692e-18 1.23844e-15 1
-2732.09 2621.97 -3.50222e-12 2.17946e-16 1.59426e-15 1
-4168.84 1304.99 39.13 0 0 -1
-888.661 4531.78 192.786 -1 0 0
412.429 856.51 -1.37296e-12 2.17946e-16 1.59426e-15 1
-5969.11 2515.95 39.13 0 0 -1
-590.057 35.745 218.175 0 -1 0
-8448.37 3338.99 39.13 0 0 -1
-7992.19 2937.09 39.13 0 0 -1
1602.35 2820.14 40.43 0 0 -1
1634.81 1238.93 29.87 0 0 -1
-8517.42 6083.9 -7.7764e-12 2.25692e-18 1.23844e-15 1
-2181.39 76.5887 39.13 0 0 -1
-891.868 1936.04 39.13 0 0 -1
-7716.65 2477.76 39.13 0 0 -1
-4042.23 1406.53 -1.99386e-12 2.25692e-18 1.23844e-15 1
-7016.46 1280.02 39.13 0 0 -1
-1416.2 3898.26 578.369 1 0 0
342.942 1995.77 40.43 0 0 -1
-5642.46 2294.42 29.87 0 0 -1
40.1868 -98.4515 29.87 0 0 -1
-3674.98 2539.28 -3.39753e-12 2.25692e-18 1.23844e-15 1
-6585.83 1879.24 29.87 0 0 -1
-3150.6 362.796 379.667 0 1 0
-4007.95 883.812 450.049 1 0 0
-9872.36 6419.51 39.13 0 0 -1
-8298.24 5436.92 -6.97566e-12 2.25692e-18 1.23844e-15 1
-202.675 -218.703 1.02277e-14 2.25692e-18 1.23844e-15 1
602.724 874.018 298.725 1 0 0
-3258.52 1207.32 39.13 0 0 -1
-665.166 787.092 327.596 0 0 1
-4267.13 7332.58 -1.09218e-11 2.57272e-16 1.71809e-15 1
-3205.94 2470.55 39.13 0 0 -1
-3182.1 1920.28 -2.63205e-12 2.25692e-18 1.23844e-15 1
-9722.82 6275.1 39.13 0 0 -1
-2792.95 3448.53 39.13 0 0 -1
-1219.68 6412.89 39.13 0 0 -1
-9662.27 586.059 -9.65073e-13 2.25692e-18 1.23844e-15 1
634.38 1941.73 40.43 0 0 -1
-783.85 3530 261.197 -1 0 0
-5426.65 6584.98 29.87 0 0 -1
-9409.77 3420.86 39.13 0 0 -1
-6958.12 845.024 -1.29189e-12 2.25692e-18 1.23844e-15 1
-159.757 4770.81 39.13 0 0 -1
-3084.9 5451.74 -7.99455e-12 2.57272e-16 1.71809e-15 1
-6051.24 3136.65 644.249 -1 0 0
-888.288 1874.22 39.13 0 0 -1
2707.16 3554.78 29.87 0 0 -1
-5396.42 1721.67 29.87 0 0 -1
-5594.87 6885.21 -9.81164e-12 2.57272e-16 1.71809e-15 1
1822.95 2654.87 39.1421 0 0 1
1916.13 1135.47 -1.94492e-13 -4.05073e-15 -1.33196e-16 1
2415.69 2071.33 40.43 0 0 -1
-6207.94 4634.63 550.64 0 0 -1
-7948.77 4735.21 -6.10742e-12 2.25692e-18 1.23844e-15 1
-9773.37 2456.38 -3.2811e-12 2.25692e-18 1.23844e-15 1
-3341.87 6350.82 574.096 0 1 0
-2605.58 274.919 39.13 0 0 -1
-7713.65 2649.04 39.13 0 0 -1
-7956.74 5398.98 39.13 0 0 -1
-8136.39 6851.12 -9.0992e-12 2.57272e-16 1.71809e-15 1
-2109.52 547.548 -9.34425e-13 2.25692e-18 1.23844e-15 1
-9031.34 1087.06 39.13 0 0 -1
-5990.34 5891.16 -8.00403e-12 2.17946e-16 1.59426e-15 1
964.815 -154.453 -7.19774e-14 2.25692e-18 1.23844e-15 1
-3201.5 6808.44 703.95 0 0 -1
-7911.51 2327.87 -3.12615e-12 2.25692e-18 1.23844e-15 1
-5959.62 2026.91 188.505 0 1 0
-8570.56 3699.32 -4.82312e-12 2.25692e-18 1.23844e-15 1
-9535.93 3788.18 39.13 0 0 -1
-7995.22 6036.79 -7.79925e-12 2.17946e-16 1.59426e-15 1
-6963.01 3407.52 39.13 0 0 -1
-7298.08 3118.34 39.13 0 0 -1
422.673 1431.46 29.87 0 0 -1
-2116.1 362.796 69.2497 0 1 0
-7167.9 1546.26 29.87 0 0 -1
-6028.33 4694.56 39.13 0 0 -1
-4422.12 7349.69 571.57 0 -1 0
-5895.55 3534.56 -4.62512e-12 2.25692e-18 1.23844e-15 1
-9623.94 6934.39 -8.87527e-12 2.17946e-16 1.59426e-15 1
-5703.16 4220.92 303.547 0 0 1
-4879.91 7131.58 -1.04188e-11 2.57272e-16 1.71809e-15 1
1010.57 1810.16 -3.02369e-12 2.17946e-16 1.59426e-15 1
-8100.27 6469.19 -8.46571e-12 2.17946e-16 1.59426e-15 1
-3495.65 5515.68 29.87 0 0 -1
-8525.86 2822.11 -3.73686e-12 2.25692e-18 1.23844e-15 1
-8864.88 3759.17 -4.89659e-12 2.25692e-18 1.23844e-15 1
-3430.36 6390.24 544.364 -0.855661 0.517537 0
-3190.98 6355.08 -9.51927e-12 2.57272e-16 1.71809e-15 1
-1204.67 6478.87 -1.0243e-11 2.57272e-16 1.71809e-15 1
-94.6348 2958.35 -4.61332e-12 2.17946e-16 1.59426e-15 1
-3391.07 6350.82 192.453 0 1 0
-4606.39 7349.69 268.214 0 -1 0
-535.639 1364.11 36.0655 0 -1 0
2783.01 2428.36 40.43 0 0 -1
-3460.31 7349.69 304.005 0 -1 0
-6051.24 3088.95 863.586 1 0 0
2613.76 3002.6 40.43 0 0 -1
-10268.9 1564.97 29.87 0 0 -1
-5149.8 3904.83 -5.08536e-12 2.25692e-18 1.23844e-15 1
1839.28 3554.03 29.87 0 0 -1
-1432.09 4198.31 105.687 1 0 0
-8668.23 18.2717 39.13 0 0 -1
-6086.63 6802.33 39.13 0 0 -1
-6075.75 4171.83 39.13 0 0 -1
-36.0504 185.444 -4.90661e-13 2.25692e-18 1.23844e-15 1
-893.758 4311.29 659.202 0 -0.48123 -0.876594
-7581.8 4065.6 39.13 0 0 -1
-3222.43 310.499 39.13 0 0 -1
-9610.43 1242.56 39.13 0 0 -1
-4447.93 1259.58 39.13 0 0 -1
-4958.95 6053.92 -8.54701e-12 2.57272e-16 1.71809e-15 1
482.905 92.6733 277.49 -0.92388 -0.382683 0
920.719 3230.27 40.43 0 0 -1
-10425.3 3582.25 -4.67396e-12 2.25692e-18 1.23844e-15 1
-512.904 535.517 39.13 0 0 -1
-5264.13 6419.34 29.87 0 0 -1
-4406.96 5799.68 -8.25222e-12 2.57272e-16 1.71809e-15 1
-5088.55 6592.84 -9.43956e-12 2.57272e-16 1.71809e-15 1
2023.28 2617.02 -3.06106e-12 1.5706e-16 2.66299e-15 1
-2913.77 2942.49 39.13 0 0 -1
-1208.9 4023.54 1149.87 0 0.584279 -0.811553
-9601.54 2006.81 -2.72472e-12 2.25692e-18 1.23844e-15 1
-6346 628.764 39.13 0 0 -1
-7006.09 4363.74 39.13 0 0 -1
-3930.39 5273.7 39.13 0 0 -1
-639.125 1986.53 131.855 0 1 0
-3687.42 4984.43 39.13 0 0 -1
-944.471 1.43539 39.13 0 0 -1
-2306.65 362.796 593.96 0 1 0
-6748.67 2851.14 -3.77682e-12 2.25692e-18 1.23844e-15 1
679.327 610.359 29.87 0 0 -1
-1682.85 2201.72 39.13 0 0 -1
1350.04 213.449 -5.52108e-13 2.17946e-16 1.59426e-15 1
-2865.18 1520.14 29.87 0 0 -1
